ply
format ascii 1.0
element vertex 2476
property int x
property int y
property int z
property int ring
end_header
-6613 -10133 1973 30
-6597 -10101 2256 31
-322 -559 -349 0
-336 -580 -345 1
-356 -610 -346 2
-389 -659 -356 3
-431 -723 -372 4
-489 -809 -397 5
-2583 -3972 -1958 6
-2778 -4263 -1967 7
-3015 -4619 -1989 8
-3263 -4990 -1998 9
-3551 -5421 -2007 10
-3904 -5949 -2027 11
-4304 -6548 -2040 12
-4408 -6702 -1890 13
-4809 -7298 -1849 14
-4861 -7371 -1656 15
-4502 -6895 -1347 16
-4527 -6930 -1159 17
-4590 -7020 -976 18
-4802 -7335 -816 19
-6686 -10182 -852 20
-6677 -10160 -569 21
-6674 -10147 -285 22
-6666 -10132 -4 23
-6660 -10116 274 24
-6642 -10080 555 25
-6642 -10077 834 26
-6628 -10048 1112 27
-6632 -10048 1396 28
-6605 -10002 1671 29
-6609 -10001 1954 30
-6589 -9964 2234 31
-325 -556 -349 0
-336 -573 -342 1
-358 -606 -345 2
-392 -657 -356 3
-437 -723 -374 4
-491 -803 -395 5
-2608 -3960 -1959 6
-2806 -4253 -1970 7
-3039 -4596 -1987 8
-3285 -4961 -1994 9
-3587 -5406 -2010 10
-3940 -5927 -2028 11
-4338 -6518 -2038 12
-4433 -6654 -1884 13
-4862 -7286 -1853 14
-4850 -7262 -1638 15
-4656 -7039 -1381 16
-4563 -6896 -1158 17
-4630 -6993 -976 18
-4853 -7321 -818 19
-6679 -10042 -844 20
-6670 -10025 -563 21
-6665 -10009 -282 22
-6660 -9994 -4 23
-6649 -9974 272 24
-6638 -9950 550 25
-6641 -9948 827 26
-6621 -9910 1101 27
-6625 -9913 1382 28
-6600 -9868 1655 29
-6600 -9861 1935 30
-6587 -9838 2214 31
-332 -561 -354 0
-341 -573 -344 1
-367 -612 -350 2
-397 -655 -357 3
-442 -722 -375 4
-496 -801 -396 5
-2630 -3943 -1958 6
-2827 -4232 -1968 7
-3063 -4577 -1987 8
-3317 -4948 -1997 9
-3618 -5387 -2010 10
0 -70 -2 11
-4374 -6491 -2038 12
-4460 -6612 -1880 13
-4907 -7264 -1855 14
-4850 -7176 -1625 15
-4757 -7099 -1398 16
-4616 -6889 -1161 17
-4632 -6908 -968 18
-4866 -7248 -813 19
-6674 -9910 -836 20
-6663 -9887 -558 21
-6658 -9876 -280 22
-6647 -9853 -4 23
-6640 -9835 269 24
-6631 -9817 544 25
-6634 -9815 819 26
-6612 -9779 1091 27
-6618 -9781 1369 28
-6594 -9738 1639 29
-6597 -9739 1918 30
-6581 -9708 2194 31
-331 -553 -350 0
-339 -564 -339 1
-372 -612 -352 2
-400 -653 -357 3
-448 -722 -377 4
-514 -818 -406 5
-2646 -3920 -1955 6
-2852 -4216 -1968 7
-3090 -4560 -1987 8
-3343 -4925 -1995 9
-3646 -5361 -2008 10
-3997 -5866 -2023 11
-4404 -6454 -2034 12
0 -69 -2 13
-4926 -7201 -1846 14
0 -69 -2 15
-4836 -7131 -1410 16
0 -69 -2 17
-4747 -6993 -984 18
-4899 -7210 -812 19
-6668 -9781 -828 20
-6654 -9757 -552 21
-6648 -9741 -277 22
-6642 -9725 -4 23
-6639 -9716 267 24
-6622 -9685 539 25
-6630 -9689 812 26
-6607 -9649 1080 27
-6615 -9657 1357 28
-6591 -9615 1625 29
-6598 -9618 1902 30
-6577 -9584 2174 31
-336 -554 -352 0
-342 -561 -339 1
-370 -602 -347 2
-405 -651 -358 3
-452 -719 -377 4
-532 -834 -417 5
-2670 -3905 -1955 6
-2872 -4193 -1966 7
-3113 -4537 -1985 8
-3369 -4900 -1993 9
-3679 -5342 -2010 10
-4030 -5843 -2023 11
-4423 -6400 -2025 12
0 -69 -2 13
-4408 -6372 -1638 14
-4437 -6410 -1462 15
-4492 -6545 -1298 16
-4503 -6559 -1114 17
-4774 -6944 -981 18
-5434 -7888 -892 19
-6662 -9652 -820 20
-6650 -9628 -547 21
-6650 -9621 -274 22
-6637 -9599 -4 23
-6635 -9589 264 24
-6617 -9556 534 25
-6623 -9560 804 26
-6597 -9517 1070 27
-6612 -9531 1345 28
-6585 -9489 1610 29
-6589 -9487 1883 30
-6573 -9457 2154 31
-337 -548 -350 0
-350 -568 -345 1
-378 -607 -352 2
-407 -647 -357 3
-466 -731 -385 4
-2535 -3670 -1964 5
-2693 -3891 -1956 6
-2898 -4179 -1967 7
-3138 -4517 -1985 8
-3400 -4885 -1995 9
-3712 -5323 -2011 10
-4066 -5822 -2024 11
-4442 -6350 -2018 12
0 -68 -2 13
-4416 -6306 -1628 14
-4543 -6481 -1484 15
0 -68 -2 16
-4513 -6494 -1107 17
-4805 -6903 -979 18
-6659 -9534 -1084 19
-6655 -9525 -813 20
-6643 -9501 -542 21
-6641 -9492 -272 22
-6634 -9479 -4 23
-6628 -9462 262 24
-6614 -9436 530 25
-6616 -9435 797 26
-6595 -9399 1061 27
-6608 -9410 1333 28
-6586 -9376 1597 29
-6582 -9363 1866 30
-6569 -9337 2135 31
-342 -550 -353 0
-351 -562 -343 1
-379 -602 -350 2
-413 -649 -360 3
-485 -749 -398 4
-2544 -3637 -1954 5
-2717 -3878 -1958 6
-2925 -4166 -1969 7
-3165 -4500 -1985 8
-3430 -4868 -1997 9
-3736 -5293 -2008 10
-4103 -5802 -2025 11
-4446 -6279 -2003 12
-4396 -6204 -1792 13
-4299 -6065 -1572 14
-4487 -6323 -1454 15
-4442 -6317 -1263 16
-4623 -6567 -1124 17
-4814 -6833 -973 18
-6654 -9413 -1074 19
-6651 -9400 -806 20
-6638 -9379 -537 21
-6633 -9365 -269 22
-6624 -9346 -4 23
-6618 -9334 259 24
-6613 -9321 525 25
-6612 -9313 790 26
-6598 -9287 1053 27
-6607 -9295 1322 28
-6577 -9246 1582 29
-6580 -9243 1850 30
-6562 -9216 2116 31
-342 -544 -350 0
-350 -554 -339 1
-378 -593 -346 2
-417 -646 -360 3
-502 -764 -408 4
-2563 -3620 -1953 5
-2732 -3851 -1952 6
-2945 -4144 -1967 7
-3192 -4482 -1986 8
-3457 -4848 -1997 9
0 -67 -2 10
-4141 -5784 -2027 11
-4460 -6223 -1993 12
-4431 -6179 -1792 13
-4321 -6025 -1568 14
-4467 -6221 -1436 15
-4390 -6167 -1238 16
-4484 -6295 -1082 17
-4773 -6691 -957 18
-6649 -9288 -1065 19
-6648 -9284 -799 20
-6630 -9252 -532 21
-6629 -9247 -267 22
-6628 -9239 -4 23
-6620 -9221 257 24
-6607 -9200 521 25
-6607 -9193 783 26
-6588 -9164 1043 27
-6597 -9170 1310 28
-6572 -9129 1568 29
-6573 -9126 1834 30
-6554 -9093 2096 31
-348 -545 -353 0
-357 -557 -343 1
-389 -601 -353 2
-421 -645 -361 3
-497 -749 -401 4
-2585 -3608 -1955 5
-2754 -3837 -1953 6
-2968 -4126 -1966 7
-3211 -4456 -1982 8
-3485 -4828 -1997 9
-3797 -5251 -2008 10
-4177 -5767 -2030 11
-4459 -6147 -1977 12
-4452 -6136 -1787 13
-4341 -5980 -1563 14
-4443 -6114 -1417 15
-4376 -6076 -1225 16
-4560 -6326 -1092 17
-4773 -6614 -950 18
-6646 -9177 -1056 19
-6638 -9162 -791 20
-6625 -9137 -528 21
-6625 -9131 -265 22
-6618 -9118 -4 23
-6610 -9100 255 24
-6594 -9073 515 25
-6595 -9071 775 26
-6583 -9046 1034 27
-6594 -9056 1299 28
-6562 -9009 1554 29
-6567 -9008 1818 30
-6553 -8984 2080 31
-353 -546 -355 0
-357 -551 -340 1
-392 -598 -353 2
-425 -643 -362 3
-506 -751 -405 4
-2604 -3589 -1953 5
-2781 -3828 -1957 6
-2991 -4108 -1966 7
-3237 -4437 -1982 8
-3512 -4807 -1997 9
-3820 -5219 -2005 10
-4203 -5731 -2026 11
-4466 -6083 -1965 12
-4509 -6137 -1795 13
-4394 -5977 -1569 14
-4434 -6027 -1403 15
-4426 -6071 -1229 16
-4485 -6147 -1065 17
-4769 -6529 -941 18
-6637 -9055 -1046 19
-6634 -9044 -785 20
-6621 -9023 -523 21
-6619 -9013 -262 22
-6617 -9004 -4 23
-6600 -8978 252 24
-6590 -8959 511 25
-6590 -8952 769 26
-6578 -8928 1025 27
-6587 -8937 1287 28
-6564 -8901 1542 29
-6564 -8894 1802 30
-6547 -8868 2062 31
-356 -543 -355 0
-364 -554 -344 1
-390 -588 -348 2
-428 -639 -361 3
-493 -726 -392 4
-2624 -3574 -1953 5
-2799 -3805 -1954 6
-3010 -4084 -1963 7
-3256 -4410 -1979 8
-3538 -4783 -1995 9
-3852 -5198 -2005 10
-4230 -5698 -2023 11
-4481 -6028 -1956 12
-4567 -6142 -1804 13
-4355 -5855 -1543 14
-4424 -5943 -1389 15
-4501 -6097 -1240 16
-4418 -5984 -1041 17
0 -66 -2 18
-6634 -8940 -1038 19
-6628 -8928 -778 20
-6614 -8903 -519 21
-6619 -8903 -260 22
-6604 -8880 -4 23
-6600 -8868 250 24
-6588 -8845 507 25
-6586 -8840 762 26
-6572 -8815 1016 27
-6581 -8820 1276 28
-6557 -8785 1528 29
-6557 -8779 1787 30
-6548 -8761 2046 31
-357 -539 -354 0
-368 -553 -345 1
-398 -593 -353 2
-435 -642 -364 3
-499 -726 -394 4
-2645 -3558 -1953 5
-2820 -3787 -1953 6
-3036 -4069 -1965 7
-3285 -4396 -1981 8
-3564 -4760 -1995 9
-3880 -5173 -2005 10
-4261 -5672 -2022 11
-4484 -5962 -1943 12
-4596 -6107 -1802 13
-4459 -5923 -1568 14
-4445 -5900 -1385 15
-4491 -6012 -1228 16
-4416 -5911 -1033 17
-4463 -5968 -867 18
0 -66 -2 19
-6629 -8823 -772 20
-6613 -8796 -515 21
-6607 -8781 -258 22
-6604 -8775 -4 23
-6591 -8751 248 24
-6583 -8734 503 25
-6584 -8732 756 26
-6567 -8704 1007 27
-6577 -8710 1265 28
-6559 -8684 1517 29
-6553 -8670 1772 30
-6540 -8646 2028 31
-361 -538 -355 0
-369 -549 -344 1
-399 -587 -351 2
-440 -640 -365 3
-490 -705 -383 4
-2662 -3540 -1952 5
-2847 -3777 -1957 6
-3059 -4051 -1965 7
-3309 -4376 -1981 8
-3589 -4736 -1993 9
-3913 -5155 -2006 10
-4289 -5642 -2021 11
0 -65 -2 12
-4592 -6029 -1787 13
-4462 -5856 -1557 14
-4473 -5866 -1383 15
-4506 -5960 -1222 16
-4449 -5883 -1032 17
-4510 -5959 -870 18
-6619 -8709 -1020 19
-6621 -8708 -765 20
-6606 -8683 -510 21
-6606 -8676 -256 22
-6601 -8666 -4 23
-6586 -8641 246 24
-6581 -8629 499 25
-6576 -8619 750 26
-6564 -8598 1000 27
-6573 -8603 1255 28
-6554 -8575 1505 29
-6551 -8564 1758 30
-6536 -8539 2011 31
-361 -532 -352 0
-372 -546 -344 1
-399 -580 -348 2
-443 -637 -365 3
-488 -695 -379 4
-2685 -3526 -1953 5
-2866 -3757 -1955 6
-3077 -4027 -1962 7
-3334 -4355 -1980 8
-3620 -4721 -1996 9
-3942 -5132 -2006 10
-4318 -5610 -2018 11
0 -65 -2 12
-4445 -5768 -1717 13
-4431 -5748 -1535 14
-4416 -5725 -1356 15
-4417 -5772 -1189 16
-4392 -5739 -1012 17
-4389 -5731 -840 18
0 -65 -2 19
-6618 -8599 -759 20
-6603 -8573 -506 21
-6600 -8566 -254 22
-6595 -8554 -4 23
-6582 -8530 244 24
-6572 -8515 494 25
-6573 -8510 744 26
-6557 -8487 991 27
-6570 -8497 1245 28
-6551 -8466 1492 29
-6550 -8462 1745 30
0 -65 -2 31
-362 -528 -351 0
-377 -546 -346 1
-410 -589 -356 2
-446 -634 -365 3
-494 -695 -381 4
-2703 -3507 -1952 5
-2879 -3730 -1950 6
-3103 -4013 -1964 7
-3355 -4330 -1978 8
-3640 -4691 -1992 9
-3975 -5113 -2008 10
-4350 -5585 -2018 11
-4497 -5770 -1905 12
-4651 -5961 -1783 13
-4481 -5741 -1540 14
-4361 -5586 -1329 15
-4423 -5715 -1182 16
-4409 -5693 -1008 17
-4391 -5668 -834 18
-4356 -5619 -662 19
-6612 -8489 -753 20
-6598 -8468 -502 21
-6596 -8460 -252 22
-6590 -8446 -4 23
-6582 -8433 242 24
-6566 -8407 490 25
-6567 -8403 737 26
-6555 -8382 983 27
-6563 -8388 1235 28
-6535 -8347 1478 29
-6542 -8350 1730 30
-6530 -8332 1980 31
-365 -525 -351 0
-378 -541 -344 1
-407 -577 -350 2
-447 -628 -363 3
-508 -704 -388 4
-2723 -3491 -1952 5
-2910 -3724 -1956 6
-3127 -3994 -1964 7
-3377 -4308 -1977 8
-3669 -4672 -1993 9
-4005 -5089 -2008 10
-4379 -5556 -2017 11
-4502 -5707 -1893 12
-4386 -5559 -1669 13
-4568 -5784 -1559 14
-4407 -5579 -1333 15
-4428 -5652 -1174 16
-4398 -5612 -998 17
-4286 -5467 -808 18
-4416 -5627 -666 19
-6604 -8380 -746 20
-6590 -8357 -498 21
-6591 -8352 -250 22
-6584 -8340 -4 23
-6574 -8322 240 24
-6565 -8305 487 25
-6563 -8299 732 26
-6547 -8273 975 27
-6558 -8281 1225 28
-6532 -8246 1467 29
-6539 -8248 1716 30
-6523 -8223 1964 31
-374 -531 -357 0
-379 -537 -343 1
-413 -579 -353 2
-450 -624 -362 3
-2577 -3270 -1950 4
-2745 -3478 -1953 5
-2926 -3701 -1953 6
-3148 -3974 -1963 7
-3402 -4288 -1977 8
-3694 -4647 -1992 9
-4030 -5061 -2006 10
-4404 -5523 -2015 11
-4509 -5648 -1882 12
-4441 -5562 -1678 13
-4517 -5653 -1531 14
-4423 -5533 -1328 15
-4416 -5571 -1163 16
-4435 -5593 -999 17
-4357 -5492 -816 18
-4469 -5628 -669 19
0 -64 -2 20
-6584 -8251 -494 21
-6590 -8253 -248 22
-6580 -8238 -4 23
-6575 -8226 239 24
-6558 -8198 483 25
-6560 -8199 726 26
-6543 -8172 967 27
-6556 -8182 1216 28
-6526 -8141 1455 29
-6526 -8137 1701 30
-6517 -8119 1948 31
-372 -523 -353 0
-384 -537 -345 1
-422 -583 -358 2
-464 -635 -371 3
-2598 -3258 -1952 4
-2765 -3461 -1953 5
-2944 -3680 -1950 6
-3172 -3957 -1964 7
-3424 -4264 -1975 8
-3721 -4627 -1993 9
-4063 -5042 -2008 10
-4438 -5498 -2015 11
-4517 -5594 -1872 12
-4452 -5510 -1670 13
-4450 -5503 -1497 14
-4346 -5372 -1296 15
-4440 -5536 -1161 16
-4478 -5578 -1001 17
-4324 -5387 -804 18
-4530 -5637 -673 19
-4876 -6058 -543 20
-6579 -8149 -490 21
-6584 -8149 -246 22
-6576 -8133 -4 23
-6568 -8121 237 24
-6554 -8098 479 25
-6559 -8099 721 26
-6537 -8066 959 27
-6549 -8077 1206 28
-6521 -8038 1443 29
-6525 -8038 1688 30
-6504 -8008 1930 31
-373 -518 -351 0
-388 -536 -346 1
-417 -570 -351 2
-470 -634 -373 3
-2607 -3231 -1945 4
-2784 -3445 -1953 5
-2963 -3659 -1949 6
-3194 -3938 -1964 7
-3452 -4248 -1977 8
-3747 -4605 -1993 9
-4085 -5011 -2005 10
-4469 -5472 -2015 11
-4521 -5533 -1861 12
-4407 -5391 -1641 13
-4477 -5474 -1496 14
-4387 -5361 -1299 15
-4494 -5535 -1166 16
-4463 -5495 -991 17
-4358 -5364 -804 18
-4553 -5597 -672 19
-4725 -5804 -523 20
-4959 -6085 -367 21
-6574 -8043 -244 22
-6572 -8035 -4 23
-6567 -8023 235 24
-6553 -8003 476 25
-6553 -7997 715 26
-6528 -7964 952 27
-6543 -7976 1196 28
-6531 -7957 1435 29
-6530 -7952 1678 30
-6538 -7957 1927 31
-381 -522 -356 0
-391 -533 -346 1
-424 -573 -355 2
-477 -637 -377 3
-2620 -3210 -1941 4
-2807 -3433 -1956 5
-2985 -3645 -1950 6
-3209 -3911 -1959 7
-3470 -4221 -1974 8
-3769 -4577 -1990 9
-4114 -4987 -2005 10
-4497 -5441 -2013 11
-4534 -5484 -1853 12
-4531 -5477 -1676 13
-4454 -5381 -1477 14
-4407 -5321 -1296 15
-4621 -5626 -1191 16
-4448 -5414 -981 17
-4378 -5327 -802 18
-4590 -5579 -672 19
-4735 -5749 -520 20
-6570 -7949 -482 21
-6570 -7944 -242 22
-6562 -7929 -4 23
-6561 -7925 233 24
-6560 -7918 473 25
-6572 -7927 712 26
-6581 -7933 953 27
-6601 -7953 1199 28
-6596 -7941 1440 29
-6608 -7951 1686 30
-6612 -7953 1935 31
-380 -515 -353 0
-397 -534 -348 1
-426 -569 -354 2
-483 -636 -379 3
-2640 -3196 -1942 4
-2818 -3406 -1950 5
-3001 -3621 -1947 6
-3234 -3894 -1961 7
-3495 -4202 -1975 8
-3799 -4558 -1992 9
-4143 -4962 -2005 10
-4519 -5405 -2009 11
-4545 -5431 -1845 12
-4494 -5370 -1651 13
-4471 -5339 -1473 14
-4453 -5315 -1300 15
-4402 -5298 -1127 16
-4410 -5306 -966 17
-4450 -5349 -810 18
-4676 -5614 -680 19
-4759 -5710 -519 20
-6601 -7891 -481 21
-6614 -7902 -242 22
-6625 -7912 -3 23
-6626 -7907 234 24
-6643 -7922 475 25
-6648 -7925 716 26
-6656 -7929 957 27
-6676 -7947 1204 28
-6677 -7945 1447 29
-6686 -7951 1695 30
-6695 -7955 1946 31
-385 -515 -355 0
-397 -529 -346 1
-427 -563 -352 2
-482 -628 -375 3
-2659 -3181 -1943 4
-2843 -3395 -1953 5
-3026 -3607 -1950 6
-3258 -3877 -1962 7
-3518 -4179 -1974 8
-3821 -4532 -1990 9
-4176 -4943 -2007 10
-4534 -5358 -2002 11
-4570 -5399 -1842 12
-4588 -5415 -1673 13
-4552 -5370 -1489 14
0 -62 -1 15
-4412 -5249 -1122 16
-4404 -5236 -958 17
-4507 -5355 -815 18
-4733 -5617 -684 19
-4714 -5591 -511 20
-6674 -7886 -483 21
-6683 -7890 -242 22
-6705 -7911 -3 23
-6707 -7911 235 24
-6718 -7918 478 25
-6723 -7918 719 26
-6730 -7921 961 27
-6754 -7946 1210 28
-6750 -7937 1453 29
-6761 -7944 1702 30
-6767 -7948 1953 31
-389 -514 -356 0
-400 -526 -346 1
-431 -562 -353 2
-483 -622 -373 3
-2677 -3166 -1943 4
-2856 -3371 -1949 5
-3044 -3586 -1948 6
-3277 -3854 -1960 7
-3541 -4157 -1973 8
-3853 -4516 -1993 9
-4205 -4920 -2008 10
-4546 -5310 -1994 11
-4597 -5368 -1841 12
-4449 -5193 -1612 13
-4565 -5325 -1484 14
-4484 -5228 -1292 15
-4459 -5240 -1126 16
-4474 -5257 -966 17
-4555 -5347 -818 18
-4706 -5519 -675 19
-5056 -5922 -544 20
-5000 -5853 -360 21
-6758 -7886 -243 22
-6778 -7904 -3 23
-6788 -7910 236 24
-6789 -7909 479 25
-6800 -7915 722 26
-6808 -7922 966 27
-6828 -7939 1215 28
-6829 -7936 1460 29
-6839 -7944 1710 30
-6847 -7948 1963 31
-393 -512 -357 0
-402 -522 -345 1
-436 -561 -355 2
-481 -613 -370 3
-2689 -3143 -1939 4
-2872 -3352 -1947 5
-3066 -3571 -1949 6
-3301 -3838 -1962 7
-3567 -4141 -1975 8
-3869 -4482 -1988 9
-4241 -4904 -2012 10
-4543 -5248 -1980 11
-4639 -5354 -1845 12
-4498 -5191 -1619 13
-4605 -5309 -1487 14
-4489 -5174 -1285 15
-4454 -5176 -1117 16
-4504 -5233 -967 17
-4787 -5554 -854 18
-4718 -5471 -673 19
-5035 -5832 -538 20
-4977 -5761 -356 21
-6834 -7883 -245 22
-6857 -7906 -3 23
-6858 -7902 237 24
-6863 -7902 482 25
-6877 -7916 726 26
-6886 -7920 970 27
0 -61 -1 28
-6903 -7932 1467 29
-6917 -7941 1718 30
-6924 -7944 1972 31
-390 -503 -351 0
-404 -520 -345 1
-438 -557 -354 2
-489 -615 -373 3
-2707 -3127 -1939 4
-2895 -3339 -1950 5
-3084 -3551 -1948 6
-3321 -3816 -1960 7
-3589 -4118 -1975 8
-3895 -4461 -1989 9
-4261 -4870 -2008 10
-4551 -5197 -1971 11
-4686 -5345 -1852 12
-4507 -5141 -1612 13
-4654 -5304 -1493 14
-4448 -5068 -1265 15
-4495 -5164 -1120 16
-4518 -5188 -963 17
-4598 -5275 -815 18
-4481 -5138 -635 19
-4948 -5666 -526 20
-5053 -5782 -359 21
-6913 -7882 -246 22
-6933 -7901 -3 23
-6936 -7899 239 24
-6944 -7902 484 25
-6958 -7916 729 26
-6962 -7915 975 27
-6868 -7803 1206 28
0 -60 -1 29
-6996 -7939 1727 30
-7000 -7938 1981 31
-392 -500 -351 0
-406 -515 -344 1
-446 -561 -358 2
-478 -596 -362 3
-2722 -3108 -1937 4
-2912 -3318 -1948 5
-3101 -3528 -1946 6
-3340 -3793 -1959 7
-3608 -4091 -1972 8
-3918 -4433 -1987 9
-4293 -4849 -2010 10
-4561 -5146 -1962 11
-4711 -5310 -1849 12
-4542 -5120 -1614 13
-4605 -5187 -1468 14
-4466 -5028 -1261 15
-4564 -5181 -1130 16
-4545 -5157 -962 17
-4563 -5173 -803 18
-4552 -5157 -640 19
0 -60 -1 20
-5077 -5739 -358 21
-6988 -7872 -247 22
-7008 -7892 -3 23
-7017 -7896 240 24
-7025 -7899 487 25
-7033 -7905 732 26
-7045 -7913 980 27
-6891 -7736 1202 28
-6886 -7729 1444 29
-7074 -7933 1735 30
-7089 -7943 1993 31
-403 -507 -359 0
-413 -518 -348 1
-454 -563 -362 2
-491 -603 -369 3
-2744 -3096 -1939 4
-2932 -3302 -1949 5
-3128 -3517 -1950 6
-3358 -3769 -1956 7
-3635 -4072 -1973 8
-3945 -4413 -1988 9
-4319 -4822 -2009 10
-4568 -5093 -1952 11
-4735 -5275 -1847 12
-4698 -5230 -1658 13
-4594 -5113 -1454 14
-4510 -5017 -1265 15
-4530 -5083 -1114 16
-4568 -5122 -961 17
-4649 -5210 -813 18
-4614 -5168 -645 19
-4960 -5546 -520 20
-4985 -5572 -349 21
-7070 -7872 -248 22
-7092 -7891 -3 23
-7096 -7892 241 24
-7105 -7897 489 25
-7115 -7903 736 26
-7123 -7906 984 27
-6956 -7720 1206 28
-6970 -7730 1452 29
-7161 -7934 1744 30
-7167 -7938 2002 31
-402 -500 -356 0
-412 -511 -345 1
-455 -557 -360 2
-504 -611 -377 3
-2757 -3075 -1937 4
-2950 -3283 -1948 5
-3142 -3492 -1946 6
-3384 -3755 -1959 7
-3663 -4056 -1976 8
-3968 -4387 -1987 9
-4347 -4797 -2009 10
-4568 -5035 -1940 11
-4754 -5236 -1843 12
-4760 -5239 -1670 13
-4533 -4990 -1426 14
-4577 -5034 -1276 15
-4516 -5008 -1103 16
-4613 -5112 -964 17
-4661 -5161 -810 18
-4680 -5178 -650 19
-4975 -5499 -518 20
-5012 -5536 -349 21
-7153 -7872 -249 22
-7174 -7890 -3 23
-7176 -7887 242 24
-7185 -7894 491 25
-7201 -7906 740 26
-7203 -7906 989 27
-7218 -7916 1243 28
-7222 -7915 1495 29
-7237 -7928 1752 30
-7250 -7937 2013 31
-396 -489 -348 0
-415 -508 -345 1
-455 -552 -358 2
-497 -597 -369 3
-2776 -3060 -1938 4
-2971 -3270 -1950 5
-3158 -3470 -1944 6
-3398 -3726 -1955 7
-3679 -4028 -1972 8
-3995 -4366 -1988 9
-4373 -4770 -2008 10
-4577 -4988 -1932 11
-4792 -5216 -1846 12
-4812 -5236 -1677 13
-4535 -4935 -1418 14
-4576 -4976 -1268 15
-4537 -4975 -1102 16
-4671 -5118 -970 17
-4716 -5164 -814 18
-4755 -5203 -656 19
-4779 -5226 -495 20
-5093 -5561 -352 21
-7234 -7870 -251 22
-7251 -7886 -3 23
-7259 -7888 244 24
-7267 -7891 494 25
-7279 -7901 744 26
-7285 -7903 994 27
-7305 -7919 1251 28
-7309 -7921 1504 29
-7318 -7925 1761 30
-7332 -7935 2023 31
-406 -493 -354 0
-421 -509 -348 1
-460 -551 -360 2
-518 -613 -383 3
-2791 -3041 -1936 4
-2985 -3247 -1947 5
-3186 -3460 -1949 6
-3428 -3716 -1960 7
-3704 -4007 -1973 8
-4022 -4346 -1989 9
-4405 -4750 -2011 10
-4582 -4935 -1922 11
-4804 -5170 -1839 12
-4877 -5244 -1689 13
-4568 -4912 -1419 14
-4589 -4931 -1264 15
-4617 -5003 -1114 16
-4668 -5055 -964 17
-4660 -5045 -800 18
-4792 -5182 -657 19
-4966 -5365 -511 20
0 -58 -1 21
-7319 -7870 -252 22
0 -58 -1 23
-7333 -7877 245 24
-7342 -7881 496 25
-7358 -7893 747 26
-7368 -7898 999 27
-7388 -7917 1257 28
-7394 -7917 1512 29
-7399 -7917 1769 30
-7415 -7932 2033 31
-411 -493 -357 0
-425 -508 -349 1
-469 -554 -365 2
-2674 -2884 -1956 3
-2811 -3027 -1938 4
-3005 -3231 -1948 5
-3203 -3437 -1947 6
-3443 -3688 -1956 7
-3725 -3984 -1972 8
-4049 -4323 -1990 9
-4430 -4721 -2010 10
-4598 -4896 -1917 11
-4831 -5137 -1838 12
-4907 -5215 -1689 13
-4596 -4885 -1419 14
-4606 -4893 -1261 15
-4945 -5292 -1186 16
-4648 -4976 -954 17
-4604 -4926 -785 18
-4839 -5170 -659 19
-5071 -5414 -518 20
-5151 -5495 -352 21
-7384 -7847 -252 22
-7407 -7868 -3 23
-7415 -7870 246 24
-7425 -7876 499 25
-7444 -7893 751 26
-7455 -7899 1005 27
-7466 -7906 1262 28
-7476 -7913 1520 29
-7482 -7914 1778 30
-7503 -7930 2045 31
-413 -490 -356 0
-427 -505 -349 1
-470 -549 -363 2
-2678 -2855 -1947 3
-2824 -3006 -1935 4
-3019 -3209 -1946 5
-3222 -3418 -1947 6
-3465 -3669 -1957 7
-3745 -3959 -1971 8
-4068 -4293 -1987 9
-4454 -4692 -2008 10
0 -57 -1 11
-4845 -5093 -1832 12
-4973 -5224 -1702 13
-4703 -4941 -1444 14
-4698 -4932 -1278 15
0 -57 -1 16
-4652 -4923 -949 17
-4603 -4869 -780 18
-4948 -5225 -670 19
-4874 -5146 -495 20
-5526 -5824 -375 21
-7475 -7851 -254 22
-7482 -7856 -3 23
-7486 -7855 247 24
0 -57 -1 25
-7526 -7888 755 26
-7533 -7890 1010 27
-7551 -7904 1269 28
-7560 -7910 1528 29
-7569 -7914 1788 30
-7582 -7922 2054 31
-410 -481 -351 0
-430 -502 -349 1
-480 -553 -369 2
-2686 -2832 -1941 3
-2842 -2991 -1936 4
-3042 -3196 -1949 5
-3237 -3395 -1945 6
-3491 -3654 -1960 7
-3773 -3943 -1974 8
-4090 -4267 -1986 9
-4474 -4659 -2005 10
-4607 -4793 -1897 11
-4875 -5066 -1833 12
-5047 -5241 -1717 13
-4589 -4768 -1400 14
-4615 -4791 -1248 15
-4693 -4911 -1112 16
-4691 -4907 -951 17
-4668 -4880 -786 18
-4987 -5206 -671 19
-4936 -5152 -499 20
0 -57 -1 21
-5859 -6096 -198 22
-8693 -9014 -3 23
-8683 -8997 285 24
0 -57 -1 25
-7609 -7883 759 26
-7621 -7890 1015 27
-7641 -7905 1277 28
-7643 -7905 1535 29
-7653 -7910 1797 30
-7672 -7924 2066 31
-416 -482 -354 0
-429 -495 -346 1
-488 -555 -372 2
-2697 -2811 -1938 3
-2859 -2974 -1936 4
-3061 -3178 -1949 5
-3259 -3379 -1946 6
-3504 -3626 -1955 7
-3792 -3918 -1972 8
-4116 -4244 -1986 9
-4499 -4631 -2005 10
-4614 -4746 -1889 11
-4881 -5014 -1824 12
-5186 -5322 -1754 13
-4577 -4700 -1388 14
-4660 -4782 -1253 15
-4715 -4877 -1110 16
-4979 -5146 -1003 17
-4735 -4892 -793 18
-4897 -5055 -655 19
-4962 -5119 -498 20
-5376 -5538 -361 21
0 -57 -1 22
-8686 -8903 -3 23
-8677 -8888 283 24
0 -57 -1 25
-7696 -7881 763 26
-7705 -7885 1021 27
-7728 -7903 1284 28
-7732 -7905 1544 29
-7737 -7904 1806 30
-7758 -7920 2077 31
-422 -483 -357 0
-435 -496 -349 1
-483 -544 -367 2
-2712 -2793 -1937 3
-2879 -2960 -1938 4
-3084 -3165 -1952 5
-3281 -3362 -1948 6
-3527 -3608 -1957 7
-3815 -3895 -1972 8
-4134 -4214 -1984 9
-4504 -4583 -1995 10
-4610 -4687 -1876 11
-4888 -4964 -1816 12
-5209 -5283 -1751 13
-4605 -4674 -1389 14
-4605 -4670 -1231 15
-4730 -4837 -1107 16
-4696 -4799 -940 17
-4780 -4883 -796 18
-4970 -5071 -661 19
-5011 -5109 -500 20
-5708 -5810 -381 21
-5929 -6028 -198 22
-8686 -8799 -3 23
-8677 -8786 281 24
-8313 -8415 545 25
-7779 -7872 767 26
-7795 -7883 1026 27
-7812 -7897 1290 28
-7822 -7902 1553 29
-7828 -7903 1817 30
-7850 -7922 2090 31
-426 -481 -358 0
-444 -499 -354 1
-487 -542 -368 2
-2725 -2774 -1935 3
-2897 -2943 -1938 4
-3097 -3141 -1949 5
-3293 -3334 -1943 6
-3546 -3584 -1955 7
-3838 -3874 -1973 8
-4159 -4189 -1984 9
-4516 -4541 -1989 10
-4620 -4643 -1870 11
-4934 -4952 -1822 12
-5242 -5255 -1752 13
-4724 -4738 -1416 14
-4648 -4660 -1235 15
-4715 -4765 -1097 16
-4716 -4764 -939 17
-4875 -4920 -807 18
-4782 -4823 -632 19
-5002 -5042 -496 20
-5316 -5351 -352 21
-8338 -8355 -276 22
-8332 -8346 -3 23
0 -56 -1 24
-8364 -8367 546 25
-7869 -7872 771 26
-7882 -7879 1032 27
-7899 -7891 1297 28
-7908 -7897 1561 29
-7914 -7897 1826 30
-7930 -7908 2098 31
-424 -475 -355 0
-440 -490 -349 1
-489 -538 -367 2
-2745 -2762 -1938 3
-2914 -2926 -1938 4
-3112 -3121 -1947 5
-3315 -3319 -1945 6
-3570 -3567 -1958 7
-3859 -3850 -1972 8
-4185 -4168 -1985 9
-4565 -4537 -1999 10
-4633 -4603 -1864 11
-4957 -4917 -1820 12
-5255 -5208 -1746 13
-5083 -5036 -1515 14
-4649 -4608 -1228 15
-4772 -4767 -1104 16
-4748 -4742 -940 17
-4770 -4760 -785 18
-4737 -4724 -623 19
-4805 -4790 -474 20
-5388 -5361 -355 21
-8383 -8304 -276 22
0 -55 -1 23
0 -55 -1 24
0 -55 -1 25
-7954 -7865 775 26
-7964 -7870 1037 27
-7988 -7888 1304 28
-7991 -7888 1569 29
-8002 -7894 1836 30
-8020 -7906 2110 31
-430 -476 -358 0
-448 -492 -353 1
-483 -526 -360 2
-2753 -2738 -1932 3
-2926 -2905 -1936 4
-3131 -3103 -1948 5
-3333 -3298 -1945 6
-3591 -3547 -1958 7
-3884 -3830 -1974 8
-4202 -4136 -1982 9
-4581 -4501 -1995 10
-4633 -4550 -1854 11
-4978 -4882 -1818 12
-5265 -5158 -1740 13
-5091 -4986 -1509 14
-4688 -4593 -1232 15
-4761 -4702 -1095 16
-4801 -4739 -945 17
-4779 -4714 -782 18
-4843 -4774 -633 19
-5091 -5013 -499 20
-5418 -5329 -355 21
-8359 -8185 -274 22
-8377 -8200 -3 23
-8387 -8205 267 24
-8412 -8223 543 25
-8046 -7864 780 26
-8056 -7869 1043 27
-8080 -7887 1312 28
-8079 -7883 1577 29
-8091 -7890 1846 30
-8116 -7908 2124 31
-430 -470 -356 0
-446 -485 -350 1
-492 -529 -365 2
-2766 -2719 -1930 3
-2940 -2885 -1934 4
-3146 -3082 -1946 5
-3345 -3272 -1941 6
-3606 -3521 -1955 7
-3896 -3798 -1969 8
-4234 -4120 -1986 9
-4594 -4462 -1989 10
-4635 -4500 -1844 11
-5007 -4854 -1818 12
-5285 -5118 -1737 13
-5103 -4941 -1504 14
-4714 -4565 -1232 15
-4926 -4808 -1127 16
-4831 -4714 -946 17
-4824 -4704 -785 18
-4803 -4681 -625 19
-4913 -4786 -479 20
-5031 -4896 -328 21
-8450 -8180 -275 22
-8455 -8182 -3 23
-8449 -8170 268 24
-8440 -8156 541 25
-8137 -7862 784 26
-8148 -7868 1049 27
-8165 -7879 1318 28
-8171 -7881 1586 29
-8182 -7886 1857 30
-8199 -7898 2134 31
-429 -464 -353 0
-448 -481 -349 1
-489 -521 -361 2
-2781 -2703 -1930 3
-2952 -2864 -1931 4
-3160 -3060 -1944 5
-3365 -3253 -1941 6
-3622 -3495 -1953 7
-3921 -3777 -1970 8
-4260 -4097 -1987 9
-4605 -4422 -1983 10
-4635 -4447 -1834 11
-5012 -4803 -1810 12
-5300 -5073 -1732 13
-5118 -4897 -1500 14
-4845 -4635 -1259 15
-4907 -4734 -1116 16
-4818 -4647 -938 17
-4957 -4777 -802 18
-4935 -4753 -638 19
-5338 -5133 -518 20
-5092 -4898 -330 21
-8463 -8099 -274 22
0 -54 -1 23
-8459 -8086 267 24
-8430 -8053 538 25
-8228 -7856 789 26
-8236 -7858 1055 27
-8255 -7873 1326 28
-8265 -7877 1595 29
-8273 -7879 1867 30
-8287 -7890 2145 31
-429 -458 -351 0
-450 -478 -349 1
-482 -508 -353 2
-2794 -2684 -1929 3
-2976 -2854 -1937 4
-3180 -3043 -1945 5
-3387 -3237 -1944 6
-3648 -3480 -1957 7
0 -54 -1 8
-4282 -4071 -1986 9
-4644 -4408 -1989 10
-4640 -4402 -1826 11
-5042 -4777 -1811 12
-5314 -5027 -1727 13
-5125 -4849 -1494 14
-5095 -4817 -1317 15
-5059 -4822 -1145 16
-4761 -4540 -922 17
-4807 -4580 -773 18
-5093 -4846 -655 19
-5335 -5072 -515 20
-5156 -4900 -332 21
-8463 -8006 -273 22
-8467 -8003 -3 23
-8463 -7994 265 24
-8445 -7975 536 25
-8320 -7853 793 26
-8325 -7854 1060 27
-8346 -7869 1333 28
-8356 -7872 1604 29
-8360 -7873 1877 30
-8390 -7896 2160 31
-437 -461 -356 0
-454 -476 -350 1
-483 -503 -352 2
-2806 -2665 -1927 3
-2987 -2832 -1933 4
-3193 -3021 -1943 5
-3403 -3215 -1942 6
-3663 -3454 -1954 7
-3954 -3722 -1965 8
-4298 -4040 -1983 9
-4672 -4384 -1990 10
-4657 -4367 -1823 11
-5076 -4754 -1814 12
-5315 -4971 -1718 13
-5132 -4798 -1488 14
-5100 -4765 -1311 15
-5076 -4784 -1142 16
-4784 -4509 -921 17
-4860 -4578 -778 18
-4986 -4692 -638 19
-5628 -5286 -540 20
-5132 -4823 -329 21
-8466 -7917 -271 22
-8470 -7915 -3 23
-8466 -7908 264 24
-8453 -7891 534 25
-8413 -7849 798 26
-8421 -7850 1067 27
-8438 -7863 1341 28
-8449 -7868 1613 29
-8455 -7868 1888 30
-8477 -7886 2170 31
-439 -457 -355 0
-463 -479 -355 1
-492 -506 -357 2
-2825 -2652 -1929 3
-3001 -2811 -1931 4
-3208 -3001 -1942 5
-3425 -3198 -1944 6
-3690 -3438 -1957 7
-3977 -3701 -1967 8
-4319 -4011 -1982 9
-4682 -4341 -1984 10
-4660 -4320 -1814 11
-5099 -4718 -1812 12
-5314 -4914 -1709 13
-5140 -4751 -1483 14
-5108 -4718 -1306 15
-5077 -4730 -1136 16
-4837 -4506 -926 17
-4931 -4589 -785 18
-4962 -4615 -631 19
-5389 -5006 -514 20
-5292 -4914 -337 21
-8480 -7836 -270 22
-8475 -7829 -3 23
0 -53 -1 24
-8471 -7815 532 25
-8508 -7846 803 26
-8517 -7848 1073 27
-8535 -7860 1349 28
-8542 -7863 1623 29
-8551 -7866 1899 30
-8568 -7876 2182 31
-449 -461 -361 0
-460 -471 -351 1
-495 -503 -357 2
-2840 -2635 -1929 3
-3018 -2795 -1932 4
-3229 -2985 -1944 5
-3438 -3173 -1941 6
-3701 -3409 -1953 7
-3996 -3675 -1965 8
-4338 -3983 -1980 9
-4687 -4296 -1975 10
-4676 -4285 -1811 11
-5100 -4664 -1802 12
-5305 -4848 -1697 13
-5144 -4700 -1476 14
-5116 -4671 -1301 15
-5117 -4712 -1139 16
-4822 -4441 -919 17
-5064 -4658 -802 18
-5038 -4631 -637 19
-5404 -4963 -513 20
-5223 -4794 -331 21
-8532 -7794 -270 22
-8546 -7804 -3 23
-8560 -7811 264 24
-8568 -7812 535 25
-8603 -7842 808 26
-8613 -7845 1080 27
-8635 -7859 1357 28
-8640 -7861 1633 29
-8650 -7865 1911 30
-8667 -7875 2196 31
-446 -454 -357 0
-460 -466 -349 1
-505 -507 -363 2
-2848 -2612 -1925 3
-3035 -2778 -1933 4
-3237 -2958 -1939 5
-3459 -3155 -1943 6
-3723 -3390 -1955 7
-4016 -3652 -1965 8
-4354 -3951 -1977 9
-4693 -4252 -1968 10
-4692 -4250 -1808 11
-5101 -4613 -1794 12
-5306 -4794 -1689 13
-5155 -4656 -1471 14
-5126 -4627 -1297 15
-5125 -4665 -1135 16
-4860 -4424 -921 17
-4971 -4521 -783 18
-5005 -4549 -630 19
-5452 -4948 -515 20
-5251 -4765 -331 21
-8630 -7792 -272 22
-8644 -7802 -3 23
-8669 -7818 266 24
-8690 -7832 540 25
-8699 -7837 812 26
-8710 -7842 1086 27
-8730 -7854 1365 28
-8733 -7854 1642 29
-8742 -7857 1921 30
-8764 -7871 2209 31
-447 -450 -356 0
-466 -466 -352 1
0 -52 -1 2
-2862 -2594 -1924 3
-3047 -2756 -1930 4
-3268 -2952 -1948 5
-3474 -3132 -1941 6
-3739 -3365 -1953 7
-4037 -3628 -1965 8
-4379 -3928 -1978 9
-4697 -4207 -1959 10
-4736 -4240 -1815 11
-5100 -4559 -1784 12
-5320 -4751 -1684 13
-5161 -4607 -1465 14
-5136 -4582 -1293 15
-5135 -4620 -1132 16
-4966 -4468 -936 17
-5017 -4510 -786 18
-5029 -4518 -630 19
-5423 -4866 -509 20
-5310 -4762 -333 21
0 -52 -1 22
-8738 -7795 -3 23
-8769 -7817 268 24
-8782 -7823 543 25
-8796 -7832 817 26
-8804 -7834 1092 27
-8834 -7856 1375 28
-8833 -7852 1652 29
-8842 -7854 1933 30
-8857 -7862 2221 31
-444 -442 -352 0
-479 -472 -360 1
0 -51 -1 2
-2883 -2583 -1928 3
-3064 -2739 -1931 4
-3279 -2926 -1944 5
-3487 -3108 -1939 6
-3757 -3342 -1952 7
-4055 -3601 -1964 8
-4393 -3895 -1975 9
-4698 -4159 -1950 10
0 -51 -1 11
-5109 -4513 -1778 12
-5348 -4719 -1684 13
-5171 -4562 -1461 14
-5150 -4540 -1289 15
-5144 -4574 -1128 16
-5098 -4531 -956 17
-5050 -4487 -787 18
-5221 -4634 -650 19
-5482 -4860 -512 20
-5445 -4826 -340 21
0 -51 -1 22
-8853 -7804 -3 23
-8864 -7811 270 24
-8876 -7816 546 25
-8896 -7827 822 26
-8907 -7831 1099 27
-8927 -7846 1382 28
-8933 -7846 1662 29
-8940 -7846 1945 30
-8961 -7862 2236 31
-459 -450 -362 0
-483 -470 -361 1
-2741 -2431 -1932 2
-2897 -2564 -1928 3
-3082 -2723 -1933 4
-3291 -2903 -1941 5
-3514 -3094 -1944 6
-3782 -3324 -1955 7
-4081 -3582 -1967 8
-4411 -3865 -1973 9
-4705 -4116 -1942 10
-4846 -4236 -1838 11
-5138 -4485 -1779 12
-5359 -4674 -1679 13
-5172 -4510 -1454 14
-5156 -4493 -1285 15
-5154 -4529 -1124 16
-5106 -4486 -953 17
-5517 -4840 -855 18
-5224 -4582 -647 19
-5099 -4472 -474 20
-5472 -4792 -340 21
0 -51 -1 22
-8952 -7799 -3 23
-8963 -7803 271 24
-8977 -7809 549 25
-8986 -7814 826 26
-9001 -7823 1106 27
0 -51 -1 28
-9030 -7839 1672 29
-9038 -7841 1956 30
-9051 -7847 2247 31
-455 -442 -357 0
-480 -463 -357 1
-2745 -2407 -1926 2
-2914 -2549 -1929 3
-3091 -2699 -1929 4
-3309 -2885 -1942 5
-3524 -3067 -1940 6
-3801 -3302 -1955 7
-4097 -3554 -1964 8
-4423 -3830 -1968 9
-4702 -4066 -1932 10
-4869 -4207 -1838 11
-5144 -4439 -1772 12
-5362 -4623 -1672 13
-5177 -4462 -1448 14
-5171 -4454 -1282 15
-5162 -4484 -1120 16
-5121 -4447 -951 17
0 -50 -1 18
-5150 -4466 -635 19
-5355 -4640 -495 20
-6089 -5265 -376 21
-9025 -7774 -279 22
-9053 -7795 -3 23
-9061 -7796 273 24
0 -50 -1 25
-9085 -7809 832 26
-9099 -7815 1112 27
-8918 -7655 1367 28
-9134 -7837 1683 29
-9142 -7838 1969 30
-9153 -7842 2261 31
-464 -444 -362 0
-485 -462 -359 1
-2753 -2386 -1922 2
-2927 -2531 -1928 3
-3103 -2679 -1927 4
-3325 -2866 -1942 5
-3536 -3042 -1937 6
-3811 -3272 -1951 7
-4119 -3532 -1965 8
-4439 -3799 -1966 9
-4680 -4000 -1913 10
-4890 -4176 -1837 11
-5156 -4397 -1768 12
-5376 -4581 -1668 13
-5186 -4418 -1443 14
-5195 -4422 -1282 15
-5171 -4439 -1117 16
-5128 -4401 -947 17
-5680 -4866 -872 18
-5203 -4459 -638 19
-5252 -4499 -483 20
-5686 -4863 -350 21
-9132 -7774 -281 22
-9152 -7789 -3 23
-9163 -7793 275 24
0 -50 -1 25
-9180 -7798 836 26
-9197 -7807 1119 27
-8986 -7624 1370 28
-9231 -7828 1693 29
-9239 -7829 1980 30
-9258 -7840 2276 31
-465 -440 -361 0
-486 -457 -358 1
-2775 -2376 -1927 2
-2930 -2504 -1921 3
-3115 -2658 -1925 4
-3343 -2847 -1943 5
-3556 -3023 -1938 6
-3836 -3256 -1954 7
-4141 -3508 -1966 8
-4459 -3772 -1965 9
-4687 -3959 -1907 10
-4907 -4140 -1834 11
-5153 -4344 -1758 12
-5401 -4548 -1668 13
-5192 -4370 -1438 14
-5198 -4372 -1276 15
-5176 -4393 -1112 16
-5134 -4354 -944 17
-5715 -4839 -873 18
-5123 -4340 -626 19
-5264 -4456 -482 20
-5623 -4754 -344 21
-9234 -7770 -282 22
-9256 -7783 -3 23
-9260 -7783 276 24
-9266 -7782 559 25
-9285 -7793 842 26
-9302 -7802 1126 27
-9315 -7809 1414 28
-9337 -7822 1704 29
-9344 -7823 1993 30
0 -50 -1 31
-462 -432 -357 0
-484 -451 -355 1
-2781 -2352 -1922 2
-2945 -2487 -1921 3
-3134 -2641 -1927 4
-3351 -2820 -1938 5
-3575 -3003 -1939 6
-3852 -3230 -1953 7
-4159 -3482 -1965 8
-4480 -3744 -1964 9
0 -49 -1 10
-4921 -4104 -1831 11
-5165 -4301 -1754 12
-5421 -4511 -1666 13
-5194 -4321 -1432 14
0 -49 -1 15
-5187 -4349 -1109 16
-5142 -4310 -941 17
-5629 -4710 -855 18
-5296 -4431 -643 19
-5463 -4568 -498 20
-5673 -4738 -345 21
-9339 -7763 -284 22
-9356 -7775 -3 23
-9363 -7775 278 24
-9375 -7779 563 25
-9387 -7786 847 26
0 -49 -1 27
0 -49 -1 28
0 -49 -1 29
0 -49 -1 30
0 -49 -1 31
-469 -434 -361 0
-480 -442 -350 1
-2798 -2339 -1925 2
-2961 -2471 -1923 3
-3144 -2620 -1924 4
-3370 -2802 -1939 5
-3592 -2982 -1939 6
-3863 -3202 -1949 7
-4173 -3453 -1962 8
-4496 -3715 -1962 9
0 -49 -1 10
-4943 -4074 -1830 11
-5178 -4264 -1750 12
-5424 -4461 -1659 13
-5200 -4277 -1427 14
0 -49 -1 15
-5192 -4302 -1105 16
-5145 -4262 -937 17
-5582 -4617 -844 18
-5232 -4327 -633 19
-5301 -4382 -481 20
-5751 -4747 -348 21
0 -49 -1 22
-17636 -14441 -4 23
-17640 -14434 523 24
-17662 -14447 1057 25
0 -49 -1 26
0 -49 -1 27
0 -49 -1 28
0 -49 -1 29
0 -49 -1 30
0 -49 -1 31
-469 -428 -359 0
-483 -440 -351 1
-2808 -2321 -1923 2
-2971 -2451 -1920 3
-3163 -2605 -1927 4
-3387 -2784 -1940 5
-3607 -2960 -1938 6
-3888 -3185 -1953 7
-4194 -3430 -1963 8
-4515 -3687 -1962 9
-4694 -3829 -1883 10
-4966 -4045 -1830 11
-5185 -4220 -1744 12
-5410 -4397 -1647 13
-5203 -4228 -1421 14
0 -48 -1 15
-5197 -4258 -1101 16
-5160 -4225 -935 17
-5303 -4339 -799 18
-5097 -4170 -614 19
-5636 -4602 -509 20
-5848 -4772 -353 21
-5880 -4794 -178 22
0 -48 -1 23
-17958 -14527 530 24
0 -48 -1 25
-30622 -24701 2741 26
0 -48 -1 27
0 -48 -1 28
-37158 -29910 6691 29
-37154 -29886 7820 30
0 -48 -1 31
-478 -431 -364 0
-494 -443 -357 1
-2819 -2302 -1921 2
-2984 -2432 -1919 3
-3175 -2583 -1925 4
-3400 -2761 -1939 5
-3625 -2939 -1939 6
-3904 -3160 -1951 7
-4209 -3402 -1961 8
-4534 -3658 -1960 9
-4698 -3786 -1876 10
-4981 -4010 -1827 11
-5186 -4169 -1736 12
-5333 -4285 -1616 13
-5206 -4181 -1415 14
0 -48 -1 15
-5203 -4212 -1097 16
-5168 -4182 -932 17
-5279 -4267 -791 18
-5052 -4083 -605 19
-5659 -4567 -508 20
-5684 -4583 -341 21
-5903 -4755 -177 22
-5561 -4481 -2 23
-18033 -14411 530 24
-37091 -29569 2202 25
-30684 -24460 2734 26
-32807 -26131 3902 27
0 -48 -1 28
0 -48 -1 29
0 -48 -1 30
0 -48 -1 31
-483 -429 -366 0
-485 -431 -349 1
-2830 -2284 -1920 2
-3003 -2419 -1923 3
-3191 -2566 -1926 4
-3415 -2741 -1939 5
-3639 -2916 -1937 6
-3914 -3131 -1948 7
-4231 -3379 -1962 8
-4552 -3629 -1959 9
-4699 -3742 -1867 10
-5000 -3977 -1826 11
-5206 -4137 -1735 12
-5239 -4161 -1580 13
-5211 -4136 -1410 14
-6063 -4801 -1454 15
-5207 -4165 -1093 16
-5172 -4136 -929 17
-5664 -4522 -845 18
-5123 -4092 -611 19
-5118 -4086 -458 20
-5511 -4393 -329 21
-5980 -4760 -179 22
-5560 -4427 -2 23
0 -47 -1 24
-37563 -29592 2220 25
-34055 -26823 3021 26
0 -47 -1 27
0 -47 -1 28
0 -47 -1 29
0 -47 -1 30
0 -47 -1 31
-482 -424 -364 0
-476 -419 -341 1
-2833 -2260 -1913 2
-3019 -2403 -1925 3
-3201 -2543 -1923 4
-3430 -2720 -1938 5
-3655 -2894 -1937 6
-3929 -3106 -1946 7
-4241 -3346 -1957 8
-4569 -3600 -1958 9
-4700 -3699 -1859 10
-5034 -3955 -1829 11
-5212 -4092 -1729 12
-5196 -4077 -1560 13
-5215 -4089 -1404 14
-6009 -4700 -1434 15
-5212 -4120 -1089 16
-5182 -4094 -926 17
-5302 -4186 -787 18
-5070 -4002 -602 19
-5134 -4049 -457 20
-5611 -4420 -334 21
-5542 -4362 -165 22
-5606 -4410 -2 23
0 -47 -1 24
-38056 -29627 2239 25
-34542 -26876 3051 26
0 -47 -1 27
0 -47 -1 28
0 -47 -1 29
0 -47 -1 30
0 -47 -1 31
-482 -419 -362 0
-494 -428 -352 1
-2845 -2241 -1912 2
-3026 -2379 -1920 3
-3217 -2526 -1924 4
-3441 -2696 -1935 5
-3669 -2870 -1936 6
-3951 -3086 -1948 7
-4258 -3320 -1957 8
-4587 -3571 -1956 9
-4705 -3659 -1853 10
-5059 -3928 -1830 11
-5227 -4056 -1727 12
-5183 -4019 -1549 13
-5217 -4044 -1399 14
-6209 -4800 -1475 15
-5219 -4076 -1085 16
-5185 -4048 -922 17
-5397 -4208 -798 18
-5101 -3977 -603 19
-5329 -4152 -472 20
-5374 -4184 -318 21
-5614 -4367 -166 22
0 -47 -1 23
0 -47 -1 24
-38596 -29691 2261 25
-31982 -24593 2812 26
-39141 -30077 4594 27
0 -47 -1 28
0 -47 -1 29
-39464 -30271 8158 30
0 -47 -1 31
-474 -408 -355 0
-503 -430 -357 1
-2867 -2232 -1919 2
-3041 -2363 -1921 3
-3221 -2499 -1918 4
-3459 -2678 -1937 5
-3684 -2848 -1935 6
-3969 -3063 -1948 7
-4276 -3293 -1956 8
-4604 -3542 -1955 9
-4710 -3620 -1847 10
-5083 -3900 -1831 11
-5242 -4019 -1724 12
-5175 -3965 -1540 13
-5221 -3997 -1394 14
0 -46 -1 15
-5227 -4035 -1082 16
-5189 -4003 -919 17
-5227 -4031 -769 18
-5137 -3959 -604 19
-5342 -4112 -471 20
-5405 -4159 -319 21
-5572 -4283 -164 22
-31656 -24097 -6 23
0 -46 -1 24
-39141 -29752 2283 25
0 -46 -1 26
-39649 -30094 4633 27
0 -46 -1 28
-39624 -30043 6976 29
-20080 -15237 4131 30
-19229 -14588 4537 31
-489 -414 -364 0
-493 -417 -348 1
-2873 -2210 -1914 2
-3051 -2342 -1919 3
-3244 -2486 -1923 4
-3469 -2654 -1934 5
-3702 -2827 -1936 6
-3988 -3040 -1949 7
-4290 -3265 -1954 8
-4623 -3513 -1954 9
-4716 -3580 -1841 10
-5105 -3870 -1831 11
-5267 -3989 -1724 12
-5176 -3919 -1534 13
-5226 -3954 -1389 14
0 -46 -1 15
-5229 -3987 -1078 16
-5202 -3966 -917 17
-5205 -3965 -763 18
-5109 -3890 -598 19
-5381 -4093 -473 20
-5428 -4125 -319 21
-5589 -4243 -164 22
-32049 -24106 -6 23
0 -46 -1 24
-39676 -29788 2304 25
-32930 -24722 2870 26
0 -46 -1 27
0 -46 -1 28
-19867 -14907 3482 29
-19684 -14759 4032 30
-19298 -14460 4533 31
-499 -417 -370 0
-500 -418 -352 1
-2885 -2193 -1914 2
-3065 -2324 -1919 3
-3258 -2467 -1923 4
-3479 -2629 -1931 5
-3713 -2802 -1933 6
0 -45 -1 7
-4305 -3238 -1953 8
-4641 -3484 -1954 9
-4716 -3537 -1833 10
-5101 -3821 -1822 11
-5285 -3954 -1723 12
-5171 -3869 -1526 13
-5227 -3907 -1383 14
-5509 -4112 -1292 15
-5236 -3945 -1074 16
-5210 -3924 -915 17
-5219 -3928 -761 18
-5251 -3949 -612 19
-5327 -4004 -466 20
-5514 -4140 -322 21
0 -45 -1 22
-32456 -24120 -6 23
0 -45 -1 24
-40277 -29878 2329 25
0 -45 -1 26
0 -45 -1 27
0 -45 -1 28
-19764 -14653 3449 29
-19768 -14645 4032 30
-18673 -13826 4368 31
-480 -399 -355 0
-502 -415 -352 1
-2895 -2173 -1912 2
-3070 -2301 -1915 3
-3264 -2441 -1918 4
-3498 -2612 -1934 5
-3726 -2778 -1932 6
-4015 -2987 -1945 7
-4322 -3210 -1952 8
-4655 -3453 -1951 9
-4721 -3499 -1827 10
-5121 -3789 -1821 11
-5298 -3917 -1720 12
-5175 -3824 -1520 13
-5226 -3858 -1377 14
-5248 -3872 -1226 15
-5242 -3902 -1071 16
-5219 -3882 -912 17
-5078 -3778 -738 18
-5192 -3858 -603 19
-5261 -3906 -458 20
-5613 -4163 -327 21
-5693 -4219 -166 22
0 -45 -1 23
0 -45 -1 24
-40851 -29940 2352 25
0 -45 -1 26
0 -45 -1 27
0 -45 -1 28
-19761 -14469 3433 29
-19846 -14521 4031 30
-18775 -13734 4373 31
-499 -408 -367 0
-516 -420 -360 1
-2909 -2157 -1913 2
-3092 -2289 -1920 3
-3279 -2422 -1919 4
-3513 -2591 -1933 5
-3750 -2760 -1936 6
-4029 -2961 -1944 7
-4338 -3183 -1950 8
-4670 -3421 -1949 9
-4726 -3459 -1821 10
-5138 -3755 -1819 11
-5317 -3881 -1718 12
-5176 -3779 -1514 13
-5217 -3806 -1369 14
-5253 -3828 -1222 15
-5236 -3850 -1065 16
-5214 -3832 -907 17
-5205 -3823 -753 18
-5330 -3911 -616 19
-5236 -3841 -454 20
-5626 -4121 -326 21
-5697 -4170 -165 22
-6892 -5033 -2 23
0 -45 -1 24
-41457 -30006 2377 25
0 -45 -1 26
-41993 -30361 4824 27
-39779 -28742 5728 28
-19751 -14288 3417 29
-20690 -14954 4185 30
-18918 -13667 4387 31
-501 -404 -367 0
0 -44 -1 1
-2918 -2138 -1911 2
-3101 -2267 -1917 3
-3294 -2405 -1920 4
-3520 -2565 -1929 5
-3761 -2735 -1933 6
-4039 -2933 -1941 7
-4359 -3160 -1952 8
-4685 -3391 -1947 9
-4729 -3421 -1815 10
-5145 -3715 -1814 11
-5343 -3855 -1720 12
-5182 -3737 -1510 13
-5210 -3756 -1361 14
-5256 -3786 -1217 15
-5248 -3812 -1063 16
-5226 -3795 -906 17
-5212 -3782 -751 18
-5398 -3912 -621 19
0 -44 -1 20
-5724 -4142 -330 21
-5756 -4163 -166 22
-6379 -4605 -2 23
0 -44 -1 24
-42015 -30054 2400 25
0 -44 -1 26
0 -44 -1 27
0 -44 -1 28
-19781 -14137 3408 29
-20464 -14618 4123 30
-19059 -13608 4403 31
-506 -403 -369 0
0 -44 -1 1
-2922 -2116 -1906 2
-3110 -2247 -1916 3
-3304 -2383 -1918 4
-3532 -2542 -1928 5
-3773 -2712 -1932 6
-4053 -2908 -1940 7
-4384 -3139 -1955 8
-4701 -3362 -1946 9
-4733 -3382 -1809 10
-5165 -3684 -1814 11
-5349 -3812 -1715 12
-5192 -3699 -1506 13
-5206 -3706 -1355 14
-5269 -3748 -1215 15
-5258 -3775 -1061 16
-5236 -3756 -904 17
-5311 -3808 -762 18
-5059 -3626 -580 19
-5148 -3687 -443 20
-5667 -4053 -326 21
-5921 -4230 -170 22
0 -44 -1 23
0 -44 -1 24
0 -44 -1 25
0 -44 -1 26
0 -44 -1 27
0 -44 -1 28
0 -44 -1 29
-18879 -13321 3787 30
-18587 -13111 4276 31
-504 -397 -366 0
-2802 -2006 -1923 1
-2942 -2103 -1911 2
-3125 -2229 -1916 3
-3317 -2362 -1917 4
-3546 -2521 -1928 5
-3790 -2690 -1932 6
-4070 -2883 -1939 7
-4397 -3111 -1953 8
-4714 -3329 -1943 9
-4737 -3343 -1803 10
-5173 -3645 -1809 11
-5354 -3768 -1709 12
-5191 -3653 -1500 13
-5197 -3655 -1347 14
-5309 -3730 -1220 15
-5261 -3729 -1057 16
-5244 -3716 -902 17
-5370 -3802 -767 18
-4952 -3507 -565 19
-5144 -3639 -441 20
-5788 -4086 -331 21
-5859 -4134 -168 22
0 -43 -1 23
0 -43 -1 24
0 -43 -1 25
0 -43 -1 26
0 -43 -1 27
0 -43 -1 28
-19999 -13947 3418 29
-18960 -13215 3788 30
-18861 -13136 4321 31
-499 -388 -361 0
-2806 -1984 -1919 1
-2945 -2080 -1905 2
-3139 -2212 -1917 3
-3329 -2341 -1916 4
-3568 -2506 -1932 5
-3799 -2663 -1929 6
-4080 -2855 -1937 7
0 -43 -1 8
-4727 -3297 -1941 9
-4740 -3304 -1797 10
-5210 -3626 -1815 11
-5378 -3739 -1710 12
-5198 -3614 -1496 13
-5196 -3610 -1341 14
-5313 -3687 -1216 15
-5267 -3688 -1054 16
-5269 -3688 -902 17
-4915 -3441 -699 18
-4998 -3496 -568 19
-5271 -3683 -450 20
-5696 -3973 -324 21
-6077 -4233 -173 22
-6410 -4461 -2 23
0 -43 -1 24
0 -43 -1 25
0 -43 -1 26
-39901 -27473 4510 27
0 -43 -1 28
-19997 -13775 3404 29
-19604 -13495 3901 30
0 -43 -1 31
-507 -389 -365 0
-2815 -1966 -1918 1
-2961 -2065 -1908 2
-3147 -2191 -1915 3
-3339 -2320 -1915 4
-3578 -2481 -1929 5
-3815 -2642 -1930 6
-4096 -2831 -1937 7
-4422 -3051 -1948 8
-4734 -3262 -1936 9
-4746 -3268 -1792 10
-5209 -3579 -1807 11
-5401 -3708 -1711 12
-5199 -3568 -1490 13
-5195 -3563 -1336 14
-5267 -3610 -1200 15
-5270 -3645 -1051 16
0 -42 -1 17
-4982 -3444 -706 18
-5007 -3459 -567 19
-5520 -3806 -469 20
-5616 -3870 -319 21
-6162 -4239 -175 22
-6417 -4409 -2 23
0 -42 -1 24
0 -42 -1 25
0 -42 -1 26
0 -42 -1 27
0 -42 -1 28
-20130 -13691 3413 29
-21018 -14282 4166 30
-19382 -13169 4406 31
-506 -384 -363 0
-2821 -1945 -1914 1
-2979 -2051 -1912 2
-3158 -2170 -1914 3
-3356 -2303 -1917 4
-3589 -2458 -1928 5
-3832 -2620 -1931 6
-4118 -2811 -1939 7
-4435 -3022 -1946 8
-4747 -3230 -1934 9
-4751 -3230 -1787 10
-5238 -3555 -1810 11
-5414 -3671 -1708 12
-5211 -3533 -1488 13
-5195 -3521 -1331 14
-5245 -3551 -1191 15
-5272 -3600 -1047 16
-5337 -3643 -907 17
-4948 -3378 -698 18
-5070 -3458 -572 19
-5512 -3754 -466 20
-5806 -3949 -328 21
-6261 -4254 -177 22
0 -42 -1 23
0 -42 -1 24
0 -42 -1 25
0 -42 -1 26
0 -42 -1 27
0 -42 -1 28
-19875 -13351 3357 29
0 -42 -1 30
-19480 -13072 4411 31
-518 -387 -370 0
-2823 -1923 -1908 1
-2984 -2030 -1908 2
-3166 -2149 -1911 3
-3366 -2281 -1915 4
-3607 -2440 -1930 5
-3841 -2594 -1928 6
-4131 -2785 -1938 7
-4452 -2996 -1946 8
-4752 -3194 -1929 9
-4758 -3195 -1783 10
-5178 -3471 -1783 11
-5383 -3606 -1692 12
-5213 -3490 -1483 13
-5197 -3477 -1326 14
-5247 -3508 -1187 15
-5280 -3563 -1044 16
-5345 -3603 -904 17
-4974 -3355 -699 18
-4986 -3360 -560 19
-5640 -3793 -475 20
-5653 -3800 -318 21
-6462 -4334 -182 22
-34204 -22747 -5 23
0 -42 -1 24
0 -42 -1 25
0 -42 -1 26
-46691 -30954 5216 27
-20533 -13631 2875 28
0 -42 -1 29
-19785 -13116 3892 30
-19048 -12624 4297 31
-498 -369 -355 0
-2833 -1905 -1907 1
-2997 -2013 -1909 2
-3175 -2128 -1909 3
-3380 -2261 -1915 4
-3616 -2415 -1928 5
-3853 -2569 -1926 6
-4147 -2760 -1938 7
-4462 -2965 -1943 8
-4747 -3150 -1919 9
-4764 -3158 -1778 10
-5222 -3457 -1791 11
-5390 -3564 -1687 12
-5221 -3452 -1479 13
-5202 -3437 -1322 14
-5241 -3460 -1181 15
-5283 -3519 -1041 16
-5200 -3463 -876 17
-4961 -3303 -695 18
-4989 -3319 -558 19
-5473 -3636 -459 20
-5658 -3755 -317 21
-6467 -4282 -181 22
0 -41 -1 23
0 -41 -1 24
-46761 -30649 2598 25
-40058 -26252 3340 26
0 -41 -1 27
-21202 -13893 2957 28
-20060 -13142 3363 29
-19860 -13001 3892 30
-19186 -12552 4311 31
-499 -365 -354 0
-2836 -1884 -1902 1
-3003 -1991 -1905 2
-3181 -2106 -1906 3
-3389 -2239 -1914 4
-3624 -2390 -1924 5
-3867 -2546 -1926 6
-4164 -2737 -1939 7
-4474 -2936 -1941 8
-4760 -3119 -1917 9
-4769 -3122 -1773 10
-5247 -3429 -1793 11
-5408 -3531 -1687 12
-5228 -3413 -1476 13
-5212 -3401 -1320 14
-5241 -3417 -1176 15
-5285 -3476 -1037 16
-4958 -3263 -833 17
-5020 -3300 -700 18
-5026 -3302 -561 19
-5458 -3581 -456 20
-5686 -3726 -318 21
-6431 -4206 -180 22
0 -41 -1 23
0 -41 -1 24
0 -41 -1 25
0 -41 -1 26
0 -41 -1 27
-20463 -13242 2843 28
0 -41 -1 29
-19902 -12866 3886 30
-19197 -12402 4298 31
-503 -364 -356 0
-2849 -1869 -1904 1
-3015 -1975 -1906 2
-3199 -2091 -1909 3
-3402 -2219 -1914 4
-3648 -2376 -1930 5
-3886 -2526 -1928 6
-4178 -2711 -1938 7
-4486 -2907 -1939 8
-4763 -3082 -1911 9
-4772 -3085 -1768 10
-5281 -3408 -1798 11
-5428 -3499 -1687 12
-5237 -3377 -1473 13
-5210 -3356 -1314 14
-5240 -3373 -1172 15
-5286 -3434 -1034 16
-4980 -3236 -833 17
-5030 -3266 -699 18
-5073 -3291 -564 19
-5252 -3404 -438 20
0 -40 -1 21
-6276 -4054 -175 22
-6435 -4154 -2 23
0 -40 -1 24
-20254 -12967 1116 25
-20327 -13008 1682 26
0 -40 -1 27
-20691 -13221 2864 28
-20410 -13037 3396 29
-20066 -12808 3903 30
-18880 -12044 4211 31
-514 -366 -362 0
-2855 -1849 -1901 1
-3024 -1955 -1904 2
-3208 -2070 -1907 3
-3408 -2195 -1910 4
-3649 -2347 -1923 5
-3896 -2501 -1926 6
-4195 -2688 -1939 7
-4499 -2879 -1938 8
-4766 -3045 -1905 9
-4786 -3055 -1767 10
-5315 -3386 -1802 11
-5458 -3474 -1690 12
-5242 -3337 -1469 13
-5212 -3316 -1310 14
-5236 -3328 -1166 15
-5292 -3394 -1031 16
-4943 -3172 -824 17
-5027 -3222 -696 18
-5252 -3362 -581 19
-5192 -3323 -431 20
-5696 -3639 -316 21
-6079 -3878 -168 22
-6523 -4157 -2 23
0 -40 -1 24
0 -40 -1 25
0 -40 -1 26
-37803 -23834 4161 27
-38509 -24260 5313 28
0 -40 -1 29
-19597 -12351 3798 30
-19564 -12321 4348 31
-526 -369 -369 0
-2870 -1835 -1904 1
-3030 -1934 -1902 2
-3215 -2048 -1905 3
-3427 -2179 -1914 4
-3663 -2324 -1923 5
-3910 -2478 -1926 6
-4212 -2664 -1939 7
-4511 -2848 -1936 8
-4772 -3010 -1901 9
-4795 -3022 -1764 10
-5308 -3338 -1794 11
-5484 -3446 -1692 12
-5251 -3299 -1466 13
-5218 -3276 -1307 14
-5237 -3285 -1162 15
-5300 -3356 -1029 16
-5090 -3222 -845 17
-5023 -3179 -693 18
-5212 -3295 -575 19
-5346 -3376 -442 20
-5690 -3589 -314 21
-6106 -3846 -169 22
-6588 -4143 -2 23
-39704 -24760 1079 24
-49163 -30626 2692 25
0 -40 -1 26
0 -40 -1 27
-38045 -23663 5231 28
-20798 -12943 3435 29
-20673 -12856 3992 30
-10480 -6534 2320 31
-512 -356 -358 0
-2879 -1817 -1903 1
-3046 -1919 -1904 2
-3231 -2031 -1907 3
-3438 -2157 -1913 4
-3682 -2307 -1927 5
-3926 -2455 -1927 6
-4226 -2637 -1939 7
-4523 -2819 -1934 8
-4775 -2972 -1895 9
-4811 -2992 -1763 10
-5334 -3311 -1796 11
-5506 -3414 -1692 12
-5252 -3257 -1461 13
-5222 -3236 -1303 14
-5241 -3245 -1159 15
-5302 -3314 -1025 16
-4997 -3124 -827 17
-5058 -3159 -695 18
-5151 -3214 -566 19
-5233 -3263 -431 20
-5650 -3517 -311 21
-6308 -3919 -173 22
-6663 -4136 -2 23
-39753 -24464 1077 24
-49216 -30255 2685 25
-38284 -23534 3135 26
-38153 -23436 4169 27
-38127 -23401 5223 28
-23067 -14168 3797 29
-20360 -12500 3917 30
0 -39 -1 31
-520 -356 -362 0
-2888 -1799 -1902 1
-3055 -1900 -1903 2
-3235 -2008 -1903 3
-3445 -2134 -1910 4
-3695 -2285 -1927 5
-3940 -2432 -1927 6
-4237 -2611 -1937 7
-4539 -2793 -1934 8
-4779 -2936 -1890 9
-4822 -2960 -1761 10
-5288 -3241 -1774 11
-5510 -3373 -1688 12
-5260 -3220 -1458 13
-5225 -3197 -1299 14
-5242 -3204 -1155 15
-5304 -3272 -1022 16
-5080 -3135 -838 17
-5085 -3135 -697 18
-5415 -3333 -593 19
-5327 -3278 -437 20
-5736 -3525 -314 21
-5913 -3629 -162 22
-6604 -4048 -2 23
-39452 -23967 1065 24
-49249 -29885 2678 25
0 -39 -1 26
-40988 -24849 4463 27
-38497 -23324 5255 28
0 -39 -1 29
-10498 -6381 2012 30
-10484 -6368 2304 31
-529 -357 -367 0
-2894 -1779 -1899 1
-3064 -1881 -1902 2
-3260 -1997 -1911 3
-3459 -2115 -1911 4
-3706 -2262 -1926 5
-3947 -2405 -1924 6
-4252 -2586 -1937 7
-4553 -2765 -1933 8
-4776 -2897 -1882 9
