ply
format ascii 1.0
element vertex 1407
property float x
property float y
property float z
property uint16 refc
property uint16 ring_number
element face 0
property list uint8 int32 vertex_index
end_header
-116.18000 -278.30000 0.00000 0 23
-93.44000 -223.72000 5.62000 0 24
-51.61000 -123.43000 6.23000 0 25
-44.66000 -106.72000 8.08000 0 26
-128.89000 -307.68000 31.11000 0 27
-129.79000 -309.67000 39.26000 0 28
0.00000 0.00000 0.00000 0 29
-129.35000 -308.02000 54.88000 0 30
-109.49000 -260.59000 53.25000 0 31
-1.87000 -4.43000 -2.85000 0 0
-2.30000 -5.46000 -3.33000 0 1
-2.46000 -5.84000 -3.37000 0 2
-2.67000 -6.32000 -3.44000 0 3
-2.92000 -6.90000 -3.55000 0 4
-3.23000 -7.63000 -3.69000 0 5
-3.56000 -8.41000 -3.81000 0 6
-4.25000 -10.03000 -4.25000 0 7
-22.14000 -52.19000 -20.63000 0 8
-24.15000 -56.87000 -20.87000 0 9
-26.56000 -62.49000 -21.19000 0 10
-29.36000 -69.05000 -21.51000 0 11
-32.65000 -76.70000 -21.82000 0 12
-33.15000 -77.84000 -20.04000 0 13
-36.94000 -86.64000 -20.02000 0 14
-41.84000 -98.06000 -20.08000 0 15
0.00000 0.00000 0.00000 0 16
-55.65000 -131.89000 -20.11000 0 17
-61.21000 -144.91000 -18.36000 0 18
-37.99000 -89.85000 -9.10000 0 19
-130.09000 -307.53000 -23.35000 0 20
0.00000 0.00000 0.00000 0 21
0.00000 0.00000 0.00000 0 22
-118.24000 -278.84000 0.00000 0 23
-93.99000 -221.43000 5.58000 0 24
-52.72000 -124.09000 6.28000 0 25
-45.30000 -106.58000 8.09000 0 26
-129.91000 -305.32000 30.95000 0 27
-110.40000 -259.20000 32.94000 0 28
0.00000 0.00000 0.00000 0 29
-110.43000 -258.91000 46.24000 0 30
-110.48000 -258.77000 53.01000 0 31
-1.82000 -4.26000 -2.75000 0 0
-2.32000 -5.43000 -3.32000 0 1
-2.50000 -5.84000 -3.38000 0 2
-2.72000 -6.35000 -3.47000 0 3
-2.96000 -6.89000 -3.55000 0 4
-3.27000 -7.61000 -3.69000 0 5
-3.58000 -8.32000 -3.78000 0 6
-4.26000 -9.88000 -4.20000 0 7
-22.43000 -52.05000 -20.63000 0 8
-24.46000 -56.69000 -20.86000 0 9
-26.94000 -62.39000 -21.20000 0 10
-29.67000 -68.66000 -21.45000 0 11
0.00000 0.00000 0.00000 0 12
-33.64000 -77.74000 -20.07000 0 13
-37.33000 -86.18000 -19.96000 0 14
-42.24000 -97.44000 -20.01000 0 15
-49.27000 -114.96000 -20.55000 0 16
-56.17000 -131.00000 -20.03000 0 17
-61.70000 -143.75000 -18.26000 0 18
0.00000 0.00000 0.00000 0 19
-131.24000 -305.33000 -23.24000 0 20
-123.72000 -287.55000 -14.60000 0 21
0.00000 0.00000 0.00000 0 22
-120.86000 -280.50000 0.00000 0 23
-94.60000 -219.34000 5.54000 0 24
-53.83000 -124.70000 6.33000 0 25
-45.93000 -106.36000 8.10000 0 26
0.00000 0.00000 0.00000 0 27
-111.36000 -257.34000 32.78000 0 28
-111.26000 -256.99000 39.35000 0 29
-111.37000 -257.00000 46.01000 0 30
-111.40000 -256.83000 52.74000 0 31
-2.05000 -4.73000 -3.06000 0 0
-2.36000 -5.43000 -3.33000 0 1
-2.54000 -5.84000 -3.38000 0 2
-2.76000 -6.34000 -3.47000 0 3
-2.99000 -6.85000 -3.54000 0 4
-3.32000 -7.60000 -3.69000 0 5
-3.66000 -8.38000 -3.82000 0 6
-4.33000 -9.89000 -4.21000 0 7
-22.75000 -51.95000 -20.64000 0 8
-24.82000 -56.64000 -20.89000 0 9
-27.33000 -62.29000 -21.22000 0 10
0.00000 0.00000 0.00000 0 11
-33.31000 -75.83000 -21.68000 0 12
-34.07000 -77.51000 -20.06000 0 13
-37.73000 -85.77000 -19.91000 0 14
-42.69000 -96.95000 -19.96000 0 15
-49.90000 -114.61000 -20.53000 0 16
-56.67000 -130.09000 -19.94000 0 17
-62.17000 -142.59000 -18.16000 0 18
0.00000 0.00000 0.00000 0 19
-111.65000 -255.68000 -19.51000 0 20
0.00000 0.00000 0.00000 0 21
0.00000 0.00000 0.00000 0 22
0.00000 0.00000 0.00000 0 23
-95.13000 -217.13000 5.50000 0 24
-54.89000 -125.18000 6.37000 0 25
-46.58000 -106.18000 8.10000 0 26
-112.07000 -255.20000 26.00000 0 27
-112.26000 -255.39000 32.62000 0 28
-112.13000 -254.97000 39.14000 0 29
-112.28000 -255.06000 45.78000 0 30
-112.25000 -254.76000 52.45000 0 31
-2.02000 -4.57000 -2.96000 0 0
-2.41000 -5.45000 -3.35000 0 1
-2.56000 -5.79000 -3.37000 0 2
-2.80000 -6.34000 -3.48000 0 3
-3.02000 -6.82000 -3.53000 0 4
-3.37000 -7.59000 -3.70000 0 5
-3.71000 -8.36000 -3.82000 0 6
-4.44000 -9.99000 -4.27000 0 7
-23.02000 -51.77000 -20.62000 0 8
-25.15000 -56.49000 -20.89000 0 9
-27.69000 -62.15000 -21.23000 0 10
-30.46000 -68.32000 -21.45000 0 11
-33.75000 -75.63000 -21.68000 0 12
-34.42000 -77.10000 -20.00000 0 13
-38.11000 -85.28000 -19.85000 0 14
-43.13000 -96.43000 -19.90000 0 15
-50.56000 -114.32000 -20.53000 0 16
-57.19000 -129.26000 -19.86000 0 17
-62.67000 -141.50000 -18.07000 0 18
0.00000 0.00000 0.00000 0 19
-112.57000 -253.79000 -19.41000 0 20
-112.61000 -253.64000 -12.94000 0 21
-112.65000 -253.50000 -6.44000 0 22
-112.75000 -253.60000 0.00000 0 23
-95.60000 -214.82000 5.45000 0 24
-55.65000 -124.93000 6.37000 0 25
-47.20000 -105.91000 8.10000 0 26
-41.18000 -92.33000 9.43000 0 27
-113.12000 -253.36000 32.44000 0 28
-113.04000 -253.07000 38.95000 0 29
-113.15000 -253.07000 45.54000 0 30
-113.13000 -252.80000 52.18000 0 31
-2.02000 -4.51000 -2.93000 0 0
-2.45000 -5.45000 -3.36000 0 1
-2.62000 -5.83000 -3.39000 0 2
-2.83000 -6.29000 -3.46000 0 3
-3.08000 -6.85000 -3.55000 0 4
-3.44000 -7.64000 -3.73000 0 5
-3.77000 -8.37000 -3.83000 0 6
-4.59000 -10.17000 -4.35000 0 7
-23.38000 -51.73000 -20.66000 0 8
0.00000 0.00000 0.00000 0 9
0.00000 0.00000 0.00000 0 10
-30.85000 -68.12000 -21.44000 0 11
-34.03000 -75.09000 -21.58000 0 12
-34.88000 -76.89000 -20.00000 0 13
-38.54000 -84.89000 -19.81000 0 14
-43.59000 -95.92000 -19.85000 0 15
-51.17000 -113.92000 -20.51000 0 16
-57.68000 -128.30000 -19.77000 0 17
0.00000 0.00000 0.00000 0 18
0.00000 0.00000 0.00000 0 19
0.00000 0.00000 0.00000 0 20
-113.52000 -251.78000 -12.88000 0 21
-113.53000 -251.57000 -6.41000 0 22
-113.65000 -251.60000 0.00000 0 23
-96.26000 -213.01000 5.42000 0 24
-56.46000 -124.81000 6.38000 0 25
-47.86000 -105.72000 8.11000 0 26
-41.52000 -91.63000 9.38000 0 27
-114.03000 -251.51000 32.29000 0 28
-113.96000 -251.11000 38.75000 0 29
-114.08000 -251.14000 45.31000 0 30
-114.07000 -251.00000 51.94000 0 31
-2.12000 -4.64000 -3.02000 0 0
-2.49000 -5.45000 -3.37000 0 1
-2.65000 -5.81000 -3.39000 0 2
-2.86000 -6.27000 -3.46000 0 3
-3.13000 -6.85000 -3.56000 0 4
-3.48000 -7.60000 -3.72000 0 5
-3.81000 -8.32000 -3.82000 0 6
-4.73000 -10.32000 -4.43000 0 7
0.00000 0.00000 0.00000 0 8
-25.74000 -56.04000 -20.83000 0 9
-28.37000 -61.71000 -21.19000 0 10
-31.28000 -68.01000 -21.46000 0 11
-34.18000 -74.25000 -21.40000 0 12
-35.21000 -76.45000 -19.94000 0 13
-38.96000 -84.51000 -19.78000 0 14
-44.05000 -95.47000 -19.81000 0 15
-51.82000 -113.55000 -20.50000 0 16
-58.23000 -127.53000 -19.70000 0 17
0.00000 0.00000 0.00000 0 18
0.00000 0.00000 0.00000 0 19
-114.45000 -250.10000 -19.23000 0 20
-114.42000 -249.82000 -12.81000 0 21
-114.46000 -249.67000 -6.37000 0 22
-114.49000 -249.61000 0.00000 0 23
-96.82000 -210.91000 5.38000 0 24
-57.20000 -124.47000 6.38000 0 25
-48.55000 -105.61000 8.12000 0 26
-41.90000 -91.06000 9.35000 0 27
-114.93000 -249.55000 32.12000 0 28
-114.84000 -249.23000 38.56000 0 29
-114.96000 -249.26000 45.09000 0 30
-114.99000 -249.10000 51.69000 0 31
-2.27000 -4.90000 -3.20000 0 0
-2.50000 -5.41000 -3.35000 0 1
-2.69000 -5.81000 -3.40000 0 2
-2.89000 -6.22000 -3.44000 0 3
-3.17000 -6.83000 -3.56000 0 4
-3.52000 -7.58000 -3.72000 0 5
-3.89000 -8.38000 -3.86000 0 6
-4.67000 -10.04000 -4.32000 0 7
0.00000 0.00000 0.00000 0 8
-26.08000 -55.94000 -20.85000 0 9
-28.77000 -61.64000 -21.22000 0 10
-31.65000 -67.79000 -21.45000 0 11
0.00000 0.00000 0.00000 0 12
-35.64000 -76.22000 -19.93000 0 13
-39.43000 -84.25000 -19.77000 0 14
-44.52000 -95.04000 -19.77000 0 15
-52.37000 -113.04000 -20.47000 0 16
-58.68000 -126.60000 -19.61000 0 17
-64.09000 -138.14000 -17.78000 0 18
0.00000 0.00000 0.00000 0 19
-115.32000 -248.21000 -19.14000 0 20
-115.27000 -247.89000 -12.75000 0 21
-115.35000 -247.83000 -6.34000 0 22
-115.37000 -247.75000 0.00000 0 23
-97.26000 -208.68000 5.34000 0 24
-58.09000 -124.52000 6.40000 0 25
-44.73000 -95.83000 7.39000 0 26
-42.27000 -90.49000 9.31000 0 27
-115.83000 -247.73000 31.97000 0 28
-115.75000 -247.45000 38.39000 0 29
-115.85000 -247.43000 44.88000 0 30
-115.85000 -247.21000 51.43000 0 31
-2.32000 -4.95000 -3.24000 0 0
-2.53000 -5.39000 -3.35000 0 1
-2.72000 -5.78000 -3.39000 0 2
-2.94000 -6.25000 -3.47000 0 3
-3.20000 -6.80000 -3.55000 0 4
-3.57000 -7.58000 -3.73000 0 5
-3.94000 -8.36000 -3.86000 0 6
-22.38000 -47.36000 -20.45000 0 7
-24.21000 -51.18000 -20.61000 0 8
-26.41000 -55.81000 -20.86000 0 9
-29.09000 -61.40000 -21.20000 0 10
-32.07000 -67.64000 -21.46000 0 11
-34.63000 -73.01000 -21.15000 0 12
-36.06000 -75.96000 -19.92000 0 13
-39.85000 -83.85000 -19.73000 0 14
-44.98000 -94.56000 -19.73000 0 15
-52.95000 -112.58000 -20.44000 0 16
-59.17000 -125.70000 -19.52000 0 17
-64.53000 -137.01000 -17.68000 0 18
0.00000 0.00000 0.00000 0 19
-112.26000 -237.92000 -18.39000 0 20
-112.53000 -238.38000 -12.29000 0 21
-112.81000 -238.77000 -6.13000 0 22
-116.30000 -245.92000 0.00000 0 23
-97.78000 -206.67000 5.30000 0 24
-58.86000 -124.29000 6.41000 0 25
-45.19000 -95.35000 7.37000 0 26
-42.88000 -90.38000 9.33000 0 27
-116.71000 -245.91000 31.83000 0 28
-116.64000 -245.54000 38.20000 0 29
-116.77000 -245.58000 44.67000 0 30
-116.74000 -245.42000 51.20000 0 31
-2.34000 -4.92000 -3.23000 0 0
-2.57000 -5.39000 -3.36000 0 1
-2.77000 -5.81000 -3.42000 0 2
-3.00000 -6.28000 -3.49000 0 3
-3.28000 -6.86000 -3.60000 0 4
-3.64000 -7.61000 -3.75000 0 5
-4.00000 -8.35000 -3.86000 0 6
-22.63000 -47.18000 -20.43000 0 7
-24.49000 -51.01000 -20.59000 0 8
-26.74000 -55.67000 -20.87000 0 9
-29.46000 -61.27000 -21.21000 0 10
-32.47000 -67.47000 -21.47000 0 11
-34.92000 -72.53000 -21.07000 0 12
-36.48000 -75.70000 -19.91000 0 13
-40.26000 -83.50000 -19.70000 0 14
-45.53000 -94.36000 -19.74000 0 15
-53.56000 -112.13000 -20.41000 0 16
-59.64000 -124.82000 -19.44000 0 17
-65.00000 -135.93000 -17.59000 0 18
-104.01000 -217.29000 -22.47000 0 19
0.00000 0.00000 0.00000 0 20
-113.43000 -236.65000 -12.24000 0 21
-113.67000 -237.04000 -6.10000 0 22
-117.15000 -244.08000 0.00000 0 23
-98.28000 -204.57000 5.26000 0 24
-59.47000 -123.74000 6.40000 0 25
-45.96000 -95.55000 7.41000 0 26
-43.35000 -90.07000 9.32000 0 27
-117.56000 -244.07000 31.67000 0 28
-117.50000 -243.73000 38.02000 0 29
-117.60000 -243.81000 44.47000 0 30
-117.61000 -243.63000 50.97000 0 31
-2.38000 -4.92000 -3.24000 0 0
-2.58000 -5.33000 -3.33000 0 1
-2.76000 -5.70000 -3.37000 0 2
-3.01000 -6.20000 -3.46000 0 3
-3.30000 -6.79000 -3.57000 0 4
-3.66000 -7.54000 -3.73000 0 5
-4.05000 -8.33000 -3.86000 0 6
-22.85000 -46.95000 -20.39000 0 7
-24.82000 -50.95000 -20.63000 0 8
-27.10000 -55.59000 -20.89000 0 9
-29.87000 -61.22000 -21.25000 0 10
-32.88000 -67.33000 -21.48000 0 11
-35.18000 -72.02000 -20.98000 0 12
-36.95000 -75.57000 -19.93000 0 13
-40.67000 -83.09000 -19.66000 0 14
-46.05000 -94.00000 -19.72000 0 15
-54.07000 -111.60000 -20.37000 0 16
-60.11000 -123.95000 -19.36000 0 17
-65.49000 -135.01000 -17.52000 0 18
-113.93000 -234.64000 -24.33000 0 19
-114.12000 -234.81000 -18.25000 0 20
-114.10000 -234.66000 -12.17000 0 21
-114.47000 -235.23000 -6.07000 0 22
-118.02000 -242.30000 0.00000 0 23
-98.67000 -202.49000 5.22000 0 24
-59.95000 -122.92000 6.37000 0 25
-46.90000 -96.08000 7.47000 0 26
-44.14000 -90.35000 9.38000 0 27
-118.39000 -242.21000 31.52000 0 28
-118.33000 -241.87000 37.84000 0 29
-118.48000 -241.95000 44.26000 0 30
-118.39000 -241.68000 50.70000 0 31
-2.48000 -5.06000 -3.34000 0 0
-2.61000 -5.31000 -3.33000 0 1
-2.82000 -5.73000 -3.39000 0 2
-3.02000 -6.14000 -3.43000 0 3
-3.33000 -6.76000 -3.56000 0 4
-3.73000 -7.57000 -3.75000 0 5
-4.11000 -8.34000 -3.88000 0 6
-23.12000 -46.79000 -20.38000 0 7
-25.10000 -50.77000 -20.61000 0 8
-27.44000 -55.46000 -20.91000 0 9
-30.21000 -61.00000 -21.24000 0 10
-33.39000 -67.38000 -21.56000 0 11
-35.46000 -71.49000 -20.89000 0 12
-37.28000 -75.13000 -19.87000 0 13
-41.13000 -82.82000 -19.65000 0 14
-46.55000 -93.66000 -19.70000 0 15
-54.60000 -111.01000 -20.32000 0 16
-60.56000 -123.07000 -19.27000 0 17
-66.04000 -134.10000 -17.45000 0 18
-114.77000 -232.84000 -24.22000 0 19
0.00000 0.00000 0.00000 0 20
-114.90000 -232.80000 -12.10000 0 21
-115.28000 -233.36000 -6.04000 0 22
-118.84000 -240.47000 0.00000 0 23
-99.47000 -201.10000 5.20000 0 24
-60.46000 -122.12000 6.35000 0 25
-47.88000 -96.66000 7.54000 0 26
-45.07000 -90.91000 9.46000 0 27
-119.27000 -240.38000 31.37000 0 28
-119.19000 -240.10000 37.67000 0 29
-119.27000 -240.06000 44.03000 0 30
-119.25000 -239.81000 50.45000 0 31
-2.49000 -5.00000 -3.31000 0 0
-2.72000 -5.46000 -3.42000 0 1
-2.90000 -5.81000 -3.45000 0 2
-3.06000 -6.13000 -3.44000 0 3
-3.38000 -6.75000 -3.57000 0 4
-3.78000 -7.56000 -3.76000 0 5
-4.24000 -8.48000 -3.96000 0 6
-23.43000 -46.74000 -20.42000 0 7
-25.41000 -50.66000 -20.63000 0 8
-27.78000 -55.33000 -20.92000 0 9
-30.60000 -60.90000 -21.26000 0 10
-33.87000 -67.38000 -21.62000 0 11
-35.73000 -71.01000 -20.81000 0 12
-37.58000 -74.65000 -19.80000 0 13
-41.56000 -82.49000 -19.63000 0 14
-47.00000 -93.22000 -19.67000 0 15
-55.12000 -110.47000 -20.28000 0 16
-61.04000 -122.28000 -19.20000 0 17
-66.54000 -133.16000 -17.38000 0 18
-115.70000 -231.35000 -24.13000 0 19
0.00000 0.00000 0.00000 0 20
-115.59000 -230.83000 -12.04000 0 21
-115.95000 -231.35000 -6.01000 0 22
-119.32000 -237.97000 0.00000 0 23
-100.22000 -199.70000 5.18000 0 24
-49.33000 -98.22000 5.12000 0 25
-48.86000 -97.24000 7.60000 0 26
-119.86000 -238.31000 24.88000 0 27
-120.07000 -238.54000 31.22000 0 28
-120.00000 -238.28000 37.49000 0 29
-120.14000 -238.35000 43.85000 0 30
-120.11000 -238.08000 50.24000 0 31
-2.52000 -4.98000 -3.31000 0 0
-2.70000 -5.33000 -3.36000 0 1
-2.89000 -5.71000 -3.40000 0 2
-3.13000 -6.18000 -3.48000 0 3
-3.44000 -6.78000 -3.60000 0 4
-3.85000 -7.59000 -3.79000 0 5
-4.30000 -8.47000 -3.96000 0 6
-23.65000 -46.53000 -20.38000 0 7
-25.68000 -50.46000 -20.61000 0 8
-28.08000 -55.16000 -20.91000 0 9
0.00000 0.00000 0.00000 0 10
-34.33000 -67.32000 -21.67000 0 11
-35.98000 -70.54000 -20.73000 0 12
-37.86000 -74.14000 -19.72000 0 13
-41.95000 -82.09000 -19.59000 0 14
-47.48000 -92.82000 -19.64000 0 15
-55.70000 -110.07000 -20.26000 0 16
-61.48000 -121.40000 -19.12000 0 17
-67.04000 -132.31000 -17.32000 0 18
-102.93000 -202.98000 -21.23000 0 19
-103.37000 -203.67000 -15.97000 0 20
-103.50000 -203.83000 -10.66000 0 21
-49.59000 -97.59000 -2.54000 0 22
0.00000 0.00000 0.00000 0 23
0.00000 0.00000 0.00000 0 24
0.00000 0.00000 0.00000 0 25
-49.86000 -97.81000 7.67000 0 26
-120.68000 -236.55000 24.77000 0 27
-120.88000 -236.84000 31.09000 0 28
-120.79000 -236.46000 37.31000 0 29
-120.92000 -236.51000 43.64000 0 30
-120.84000 -236.25000 49.99000 0 31
-2.63000 -5.14000 -3.42000 0 0
-2.71000 -5.28000 -3.34000 0 1
-2.98000 -5.81000 -3.47000 0 2
-3.18000 -6.19000 -3.49000 0 3
-3.48000 -6.76000 -3.60000 0 4
-3.85000 -7.48000 -3.75000 0 5
-4.39000 -8.53000 -4.00000 0 6
0.00000 0.00000 0.00000 0 7
-26.05000 -50.48000 -20.67000 0 8
-28.41000 -55.01000 -20.92000 0 9
-31.25000 -60.46000 -21.23000 0 10
-34.70000 -67.09000 -21.66000 0 11
-36.28000 -70.08000 -20.66000 0 12
-38.31000 -73.98000 -19.74000 0 13
-42.36000 -81.73000 -19.56000 0 14
-47.97000 -92.46000 -19.62000 0 15
-56.26000 -109.56000 -20.23000 0 16
-61.95000 -120.60000 -19.05000 0 17
0.00000 0.00000 0.00000 0 18
0.00000 0.00000 0.00000 0 19
0.00000 0.00000 0.00000 0 20
0.00000 0.00000 0.00000 0 21
-50.11000 -97.17000 -2.53000 0 22
-50.38000 -97.66000 0.00000 0 23
-50.52000 -97.85000 2.55000 0 24
-50.77000 -98.25000 5.15000 0 25
-50.83000 -98.32000 7.73000 0 26
-121.44000 -234.69000 24.65000 0 27
-121.70000 -234.99000 30.94000 0 28
-121.62000 -234.74000 37.15000 0 29
-121.72000 -234.73000 43.44000 0 30
-121.68000 -234.45000 49.76000 0 31
-2.64000 -5.08000 -3.39000 0 0
-2.76000 -5.30000 -3.36000 0 1
-2.95000 -5.66000 -3.39000 0 2
-3.19000 -6.11000 -3.46000 0 3
-3.54000 -6.79000 -3.62000 0 4
-3.90000 -7.48000 -3.75000 0 5
-4.41000 -8.43000 -3.97000 0 6
-24.23000 -46.31000 -20.41000 0 7
-26.35000 -50.35000 -20.68000 0 8
-28.72000 -54.83000 -20.91000 0 9
-31.55000 -60.17000 -21.20000 0 10
-35.10000 -66.92000 -21.67000 0 11
-36.55000 -69.61000 -20.58000 0 12
-38.72000 -73.72000 -19.73000 0 13
-42.72000 -81.28000 -19.51000 0 14
-48.45000 -92.10000 -19.60000 0 15
0.00000 0.00000 0.00000 0 16
-50.20000 -96.35000 -15.27000 0 17
-50.32000 -96.50000 -12.70000 0 18
-50.47000 -96.70000 -10.17000 0 19
-50.71000 -97.13000 -7.66000 0 20
-50.92000 -97.45000 -5.12000 0 21
-51.08000 -97.67000 -2.55000 0 22
-122.12000 -233.40000 0.00000 0 23
-103.99000 -198.59000 5.20000 0 24
-62.28000 -118.84000 6.25000 0 25
-51.89000 -98.96000 7.81000 0 26
-122.26000 -232.98000 24.54000 0 27
-122.50000 -233.23000 30.80000 0 28
-122.42000 -232.98000 36.98000 0 29
-122.53000 -232.99000 43.24000 0 30
-122.57000 -232.88000 49.58000 0 31
-2.70000 -5.12000 -3.43000 0 0
-2.81000 -5.33000 -3.38000 0 1
-3.00000 -5.68000 -3.41000 0 2
-3.25000 -6.16000 -3.49000 0 3
-3.55000 -6.71000 -3.59000 0 4
-3.98000 -7.52000 -3.79000 0 5
-4.55000 -8.59000 -4.06000 0 6
-24.49000 -46.16000 -20.40000 0 7
-26.65000 -50.19000 -20.68000 0 8
-29.07000 -54.73000 -20.94000 0 9
-31.92000 -60.04000 -21.22000 0 10
-35.41000 -66.54000 -21.61000 0 11
-36.79000 -69.11000 -20.49000 0 12
-38.87000 -72.95000 -19.58000 0 13
-43.27000 -81.14000 -19.54000 0 14
-48.90000 -91.63000 -19.57000 0 15
0.00000 0.00000 0.00000 0 16
-51.16000 -96.79000 -15.38000 0 17
-51.32000 -97.05000 -12.82000 0 18
-51.45000 -97.22000 -10.26000 0 19
-122.95000 -232.12000 -18.36000 0 20
-122.91000 -231.94000 -12.24000 0 21
-122.91000 -231.75000 -6.09000 0 22
-122.97000 -231.66000 0.00000 0 23
-106.01000 -199.63000 5.24000 0 24
0.00000 0.00000 0.00000 0 25
-52.98000 -99.60000 7.88000 0 26
-123.09000 -231.21000 24.43000 0 27
-123.30000 -231.50000 30.67000 0 28
-123.23000 -231.19000 36.81000 0 29
-123.51000 -231.51000 43.10000 0 30
-123.97000 -232.27000 49.60000 0 31
-2.73000 -5.11000 -3.43000 0 0
-2.83000 -5.28000 -3.37000 0 1
-3.06000 -5.71000 -3.44000 0 2
-3.30000 -6.15000 -3.50000 0 3
-3.58000 -6.67000 -3.58000 0 4
-3.98000 -7.42000 -3.75000 0 5
-4.64000 -8.63000 -4.09000 0 6
-24.78000 -46.06000 -20.42000 0 7
-26.95000 -50.05000 -20.69000 0 8
-29.34000 -54.48000 -20.91000 0 9
-32.19000 -59.72000 -21.17000 0 10
-35.77000 -66.30000 -21.60000 0 11
-37.08000 -68.69000 -20.43000 0 12
-39.23000 -72.63000 -19.56000 0 13
-43.96000 -81.35000 -19.65000 0 14
-49.37000 -91.27000 -19.55000 0 15
0.00000 0.00000 0.00000 0 16
-63.33000 -118.16000 -18.84000 0 17
-64.50000 -120.24000 -15.93000 0 18
-64.57000 -120.28000 -12.73000 0 19
-123.71000 -230.34000 -18.28000 0 20
-123.68000 -230.09000 -12.18000 0 21
-123.65000 -229.94000 -6.06000 0 22
-123.80000 -230.01000 0.00000 0 23
-108.05000 -200.58000 5.28000 0 24
-63.16000 -117.21000 6.20000 0 25
0.00000 0.00000 0.00000 0 26
-124.27000 -230.31000 24.41000 0 27
-124.85000 -231.21000 30.72000 0 28
-125.41000 -232.04000 37.06000 0 29
-125.74000 -232.55000 43.43000 0 30
-126.33000 -233.45000 50.01000 0 31
-2.77000 -5.11000 -3.44000 0 0
-2.87000 -5.30000 -3.38000 0 1
-3.09000 -5.69000 -3.44000 0 2
-3.32000 -6.10000 -3.49000 0 3
-3.64000 -6.70000 -3.61000 0 4
-4.02000 -7.38000 -3.74000 0 5
-4.70000 -8.63000 -4.10000 0 6
-25.05000 -45.94000 -20.43000 0 7
-27.21000 -49.85000 -20.67000 0 8
-29.71000 -54.41000 -20.94000 0 9
-32.57000 -59.58000 -21.19000 0 10
-36.08000 -65.96000 -21.56000 0 11
-37.33000 -68.22000 -20.36000 0 12
-39.45000 -72.02000 -19.45000 0 13
-44.73000 -81.60000 -19.78000 0 14
-49.87000 -90.91000 -19.53000 0 15
-58.38000 -107.53000 -20.10000 0 16
-63.77000 -117.35000 -18.77000 0 17
-69.33000 -127.54000 -16.95000 0 18
-108.20000 -198.86000 -21.12000 0 19
-124.48000 -228.60000 -18.20000 0 20
-124.41000 -228.38000 -12.13000 0 21
-124.47000 -228.30000 -6.03000 0 22
-124.72000 -228.56000 0.00000 0 23
-110.03000 -201.56000 5.33000 0 24
-51.18000 -93.69000 4.97000 0 25
-51.48000 -94.16000 7.50000 0 26
-126.69000 -231.51000 24.62000 0 27
-127.21000 -232.36000 30.97000 0 28
-127.78000 -233.21000 37.37000 0 29
-128.17000 -233.72000 43.79000 0 30
-128.74000 -234.67000 50.42000 0 31
-2.82000 -5.13000 -3.47000 0 0
-2.89000 -5.25000 -3.37000 0 1
-3.13000 -5.69000 -3.45000 0 2
-3.39000 -6.15000 -3.52000 0 3
-3.72000 -6.74000 -3.64000 0 4
-4.13000 -7.48000 -3.80000 0 5
-4.77000 -8.64000 -4.12000 0 6
-25.31000 -45.75000 -20.42000 0 7
-27.49000 -49.67000 -20.66000 0 8
-30.01000 -54.20000 -20.93000 0 9
-32.93000 -59.41000 -21.19000 0 10
-36.46000 -65.75000 -21.56000 0 11
-37.64000 -67.82000 -20.30000 0 12
-39.57000 -71.27000 -19.31000 0 13
-45.28000 -81.49000 -19.81000 0 14
-50.26000 -90.38000 -19.48000 0 15
-58.88000 -106.94000 -20.05000 0 16
-64.25000 -116.64000 -18.71000 0 17
-69.77000 -126.55000 -16.87000 0 18
-109.43000 -198.32000 -21.13000 0 19
-125.50000 -227.34000 -18.16000 0 20
-126.00000 -228.06000 -12.15000 0 21
-126.45000 -228.69000 -6.06000 0 22
-126.97000 -229.54000 0.00000 0 23
-112.22000 -202.70000 5.37000 0 24
-52.24000 -94.29000 5.02000 0 25
-52.50000 -94.71000 7.57000 0 26
-129.09000 -232.69000 24.82000 0 27
-129.63000 -233.48000 31.22000 0 28
-130.16000 -234.34000 37.67000 0 29
-130.50000 -234.76000 44.12000 0 30
-80.90000 -145.42000 31.35000 0 31
-2.84000 -5.09000 -3.45000 0 0
-2.91000 -5.22000 -3.36000 0 1
-3.14000 -5.62000 -3.42000 0 2
-3.41000 -6.11000 -3.51000 0 3
-3.75000 -6.70000 -3.63000 0 4
-4.20000 -7.50000 -3.83000 0 5
-4.81000 -8.59000 -4.11000 0 6
-25.55000 -45.58000 -20.40000 0 7
-27.79000 -49.55000 -20.67000 0 8
-30.34000 -54.06000 -20.94000 0 9
-33.28000 -59.23000 -21.20000 0 10
-36.79000 -65.46000 -21.53000 0 11
0.00000 0.00000 0.00000 0 12
-39.85000 -70.82000 -19.25000 0 13
-45.75000 -81.23000 -19.81000 0 14
-50.79000 -90.10000 -19.48000 0 15
-59.42000 -106.46000 -20.03000 0 16
-64.68000 -115.83000 -18.64000 0 17
-70.20000 -125.61000 -16.80000 0 18
-110.88000 -198.24000 -21.19000 0 19
-127.83000 -228.44000 -18.30000 0 20
-128.40000 -229.28000 -12.25000 0 21
-128.81000 -229.83000 -6.11000 0 22
-129.38000 -230.74000 0.00000 0 23
-114.20000 -203.50000 5.41000 0 24
-53.34000 -94.98000 5.07000 0 25
-53.60000 -95.40000 7.65000 0 26
-81.19000 -144.39000 15.45000 0 27
-81.40000 -144.65000 19.41000 0 28
-81.48000 -144.72000 23.34000 0 29
-81.94000 -145.42000 27.42000 0 30
-133.63000 -236.97000 51.25000 0 31
-2.85000 -5.04000 -3.43000 0 0
-2.91000 -5.14000 -3.32000 0 1
-3.19000 -5.63000 -3.44000 0 2
-3.47000 -6.12000 -3.53000 0 3
-3.78000 -6.66000 -3.62000 0 4
-4.19000 -7.38000 -3.78000 0 5
-4.88000 -8.60000 -4.13000 0 6
-25.81000 -45.41000 -20.39000 0 7
-28.06000 -49.35000 -20.66000 0 8
-30.64000 -53.85000 -20.93000 0 9
-33.62000 -59.04000 -21.20000 0 10
-37.19000 -65.28000 -21.54000 0 11
-38.14000 -66.89000 -20.15000 0 12
-40.10000 -70.30000 -19.17000 0 13
-46.24000 -81.00000 -19.82000 0 14
-51.28000 -89.76000 -19.47000 0 15
-59.93000 -105.92000 -19.99000 0 16
-65.13000 -115.08000 -18.58000 0 17
-70.66000 -124.74000 -16.74000 0 18
-108.72000 -191.78000 -20.56000 0 19
-130.23000 -229.63000 -18.46000 0 20
-130.79000 -230.42000 -12.35000 0 21
-131.17000 -230.91000 -6.16000 0 22
-81.51000 -143.43000 0.00000 0 23
0.00000 0.00000 0.00000 0 24
-54.41000 -95.59000 5.12000 0 25
-54.70000 -96.06000 7.72000 0 26
-134.03000 -235.17000 25.25000 0 27
-134.51000 -235.82000 31.74000 0 28
-135.02000 -236.62000 38.28000 0 29
0.00000 0.00000 0.00000 0 30
-136.14000 -238.21000 51.69000 0 31
-2.90000 -5.05000 -3.45000 0 0
-3.01000 -5.24000 -3.39000 0 1
-3.19000 -5.57000 -3.41000 0 2
-3.45000 -6.01000 -3.48000 0 3
-3.81000 -6.62000 -3.61000 0 4
-4.24000 -7.38000 -3.79000 0 5
-4.88000 -8.49000 -4.09000 0 6
-26.06000 -45.25000 -20.39000 0 7
-28.37000 -49.24000 -20.68000 0 8
-30.96000 -53.68000 -20.94000 0 9
-33.90000 -58.75000 -21.16000 0 10
-37.58000 -65.09000 -21.55000 0 11
-38.44000 -66.54000 -20.11000 0 12
-40.57000 -70.19000 -19.21000 0 13
-46.76000 -80.84000 -19.85000 0 14
-51.77000 -89.41000 -19.46000 0 15
-60.28000 -105.13000 -19.91000 0 16
-65.60000 -114.36000 -18.53000 0 17
-71.11000 -123.86000 -16.67000 0 18
-81.82000 -142.41000 -15.32000 0 19
0.00000 0.00000 0.00000 0 20
0.00000 0.00000 0.00000 0 21
-82.21000 -142.80000 -3.82000 0 22
-134.26000 -233.11000 0.00000 0 23
-119.07000 -206.57000 5.53000 0 24
-55.53000 -96.26000 5.18000 0 25
-55.81000 -96.71000 7.80000 0 26
-136.42000 -236.20000 25.44000 0 27
-137.03000 -237.05000 32.01000 0 28
-137.54000 -237.85000 38.61000 0 29
-137.97000 -238.40000 45.25000 0 30
-138.71000 -239.48000 52.14000 0 31
-2.96000 -5.10000 -3.49000 0 0
-3.00000 -5.17000 -3.36000 0 1
-3.25000 -5.60000 -3.44000 0 2
-3.49000 -6.00000 -3.49000 0 3
-3.88000 -6.66000 -3.65000 0 4
-4.36000 -7.48000 -3.85000 0 5
-4.89000 -8.40000 -4.06000 0 6
-26.36000 -45.18000 -20.42000 0 7
-28.63000 -49.02000 -20.66000 0 8
-31.28000 -53.54000 -20.95000 0 9
-34.26000 -58.58000 -21.17000 0 10
-37.93000 -64.80000 -21.53000 0 11
-38.67000 -66.05000 -20.03000 0 12
-41.00000 -69.98000 -19.21000 0 13
-47.35000 -80.74000 -19.89000 0 14
-52.17000 -88.88000 -19.41000 0 15
-60.77000 -104.58000 -19.87000 0 16
-66.07000 -113.61000 -18.47000 0 17
-71.57000 -123.02000 -16.62000 0 18
-108.38000 -186.15000 -20.09000 0 19
-135.07000 -231.80000 -18.76000 0 20
-135.59000 -232.60000 -12.55000 0 21
-136.04000 -233.18000 -6.26000 0 22
-125.80000 -215.46000 0.00000 0 23
-121.34000 -207.73000 5.58000 0 24
-56.64000 -96.89000 5.23000 0 25
-56.95000 -97.34000 7.88000 0 26
-139.01000 -237.42000 25.66000 0 27
-139.54000 -238.23000 32.28000 0 28
-140.18000 -239.13000 38.95000 0 29
-140.63000 -239.70000 45.65000 0 30
-141.29000 -240.72000 52.58000 0 31
-2.95000 -5.02000 -3.45000 0 0
-3.04000 -5.16000 -3.37000 0 1
-3.28000 -5.56000 -3.43000 0 2
-3.56000 -6.05000 -3.52000 0 3
-3.92000 -6.64000 -3.65000 0 4
-4.40000 -7.45000 -3.85000 0 5
-24.80000 -41.95000 -20.35000 0 6
-26.59000 -44.95000 -20.39000 0 7
-28.96000 -48.91000 -20.69000 0 8
-31.57000 -53.30000 -20.93000 0 9
-34.61000 -58.38000 -21.17000 0 10
-38.28000 -64.53000 -21.51000 0 11
-38.95000 -65.63000 -19.98000 0 12
-41.51000 -69.88000 -19.26000 0 13
-47.57000 -80.02000 -19.78000 0 14
-52.67000 -88.54000 -19.41000 0 15
-61.29000 -104.05000 -19.84000 0 16
-66.48000 -112.77000 -18.39000 0 17
-72.00000 -122.08000 -16.55000 0 18
-107.87000 -182.77000 -19.80000 0 19
-126.35000 -213.90000 -17.37000 0 20
-126.49000 -214.06000 -11.59000 0 21
-126.86000 -214.52000 -5.78000 0 22
-137.26000 -231.92000 0.00000 0 23
-123.56000 -208.69000 5.62000 0 24
-57.80000 -97.55000 5.28000 0 25
-58.14000 -98.03000 7.96000 0 26
-141.57000 -238.52000 25.87000 0 27
-142.17000 -239.45000 32.56000 0 28
-142.74000 -240.22000 39.27000 0 29
-143.24000 -240.86000 46.04000 0 30
-144.14000 -242.28000 53.11000 0 31
-3.02000 -5.06000 -3.49000 0 0
-3.06000 -5.13000 -3.36000 0 1
-3.33000 -5.57000 -3.45000 0 2
-3.64000 -6.10000 -3.57000 0 3
-3.95000 -6.60000 -3.64000 0 4
-4.51000 -7.54000 -3.91000 0 5
-24.96000 -41.68000 -20.29000 0 6
-26.91000 -44.90000 -20.44000 0 7
-29.21000 -48.72000 -20.67000 0 8
-31.88000 -53.12000 -20.93000 0 9
-34.94000 -58.18000 -21.17000 0 10
-38.61000 -64.26000 -21.50000 0 11
-39.24000 -65.26000 -19.93000 0 12
-41.86000 -69.58000 -19.24000 0 13
-47.95000 -79.66000 -19.76000 0 14
-53.20000 -88.29000 -19.42000 0 15
-61.72000 -103.42000 -19.78000 0 16
-66.90000 -112.06000 -18.34000 0 17
-72.48000 -121.31000 -16.50000 0 18
-107.73000 -180.15000 -19.58000 0 19
-137.94000 -230.57000 -18.78000 0 20
-138.28000 -230.97000 -12.55000 0 21
-139.46000 -232.75000 -6.30000 0 22
-141.75000 -236.48000 0.00000 0 23
-125.89000 -209.84000 5.68000 0 24
-58.98000 -98.24000 5.34000 0 25
-59.28000 -98.70000 8.05000 0 26
-144.19000 -239.88000 26.11000 0 27
-145.02000 -241.08000 32.89000 0 28
-145.38000 -241.57000 39.62000 0 29
-145.80000 -242.09000 46.42000 0 30
-147.04000 -243.95000 53.66000 0 31
-3.03000 -5.02000 -3.47000 0 0
-3.13000 -5.17000 -3.39000 0 1
-3.35000 -5.54000 -3.44000 0 2
-3.68000 -6.08000 -3.57000 0 3
-3.98000 -6.56000 -3.63000 0 4
-4.57000 -7.54000 -3.92000 0 5
-25.15000 -41.44000 -20.25000 0 6
-27.15000 -44.71000 -20.42000 0 7
-29.46000 -48.50000 -20.65000 0 8
-32.16000 -52.90000 -20.92000 0 9
-35.27000 -57.96000 -21.17000 0 10
-38.97000 -64.02000 -21.49000 0 11
-39.44000 -64.75000 -19.85000 0 12
-42.25000 -69.33000 -19.23000 0 13
-48.21000 -79.04000 -19.68000 0 14
-53.61000 -87.83000 -19.38000 0 15
-62.20000 -102.88000 -19.75000 0 16
-67.29000 -111.25000 -18.27000 0 17
-72.90000 -120.43000 -16.43000 0 18
-107.86000 -178.03000 -19.42000 0 19
-139.57000 -230.28000 -18.83000 0 20
-139.89000 -230.63000 -12.58000 0 21
-140.12000 -230.82000 -6.27000 0 22
0.00000 0.00000 0.00000 0 23
-128.70000 -211.76000 5.75000 0 24
-60.16000 -98.91000 5.39000 0 25
-60.50000 -99.43000 8.13000 0 26
-147.35000 -241.97000 26.42000 0 27
-147.78000 -242.49000 33.20000 0 28
-147.95000 -242.67000 39.94000 0 29
-148.49000 -243.37000 46.83000 0 30
-149.71000 -245.17000 54.12000 0 31
-3.08000 -5.03000 -3.49000 0 0
-3.13000 -5.11000 -3.37000 0 1
-3.40000 -5.55000 -3.46000 0 2
-3.70000 -6.03000 -3.55000 0 3
-4.06000 -6.62000 -3.67000 0 4
-4.64000 -7.56000 -3.95000 0 5
-25.37000 -41.28000 -20.24000 0 6
-27.43000 -44.58000 -20.44000 0 7
-29.74000 -48.33000 -20.65000 0 8
-32.48000 -52.73000 -20.92000 0 9
-35.64000 -57.82000 -21.19000 0 10
-39.35000 -63.82000 -21.50000 0 11
-39.69000 -64.32000 -19.78000 0 12
-42.53000 -68.90000 -19.18000 0 13
-47.98000 -77.67000 -19.40000 0 14
-53.96000 -87.27000 -19.33000 0 15
-62.62000 -102.23000 -19.69000 0 16
-67.71000 -110.50000 -18.21000 0 17
-73.35000 -119.60000 -16.38000 0 18
-107.86000 -175.74000 -19.23000 0 19
-142.17000 -231.55000 -19.00000 0 20
-142.49000 -231.90000 -12.69000 0 21
-142.73000 -232.10000 -6.32000 0 22
-143.07000 -232.57000 0.00000 0 23
-131.11000 -212.96000 5.80000 0 24
-61.38000 -99.62000 5.45000 0 25
-61.72000 -100.13000 8.22000 0 26
-150.05000 -243.23000 26.66000 0 27
-152.42000 -246.90000 33.93000 0 28
-150.65000 -243.93000 40.29000 0 29
-151.15000 -244.54000 47.23000 0 30
-152.50000 -246.54000 54.61000 0 31
-3.08000 -4.97000 -3.46000 0 0
-3.17000 -5.11000 -3.37000 0 1
-3.43000 -5.53000 -3.46000 0 2
-3.73000 -6.01000 -3.55000 0 3
-4.12000 -6.63000 -3.69000 0 4
-4.77000 -7.67000 -4.02000 0 5
-25.62000 -41.15000 -20.25000 0 6
-27.68000 -44.42000 -20.44000 0 7
-30.07000 -48.22000 -20.68000 0 8
-32.77000 -52.53000 -20.92000 0 9
-35.95000 -57.58000 -21.18000 0 10
-39.66000 -63.47000 -21.46000 0 11
-39.96000 -63.93000 -19.73000 0 12
-42.59000 -68.08000 -19.03000 0 13
-47.97000 -76.62000 -19.21000 0 14
-54.36000 -86.77000 -19.29000 0 15
-62.97000 -101.48000 -19.62000 0 16
-68.17000 -109.78000 -18.16000 0 17
-73.84000 -118.86000 -16.33000 0 18
-108.00000 -173.71000 -19.08000 0 19
-144.89000 -232.87000 -19.18000 0 20
-145.07000 -233.07000 -12.80000 0 21
-145.05000 -232.86000 -6.37000 0 22
-172.48000 -276.67000 0.00000 0 23
-133.60000 -214.22000 5.86000 0 24
-62.65000 -100.38000 5.51000 0 25
-63.02000 -100.90000 8.31000 0 26
-152.85000 -244.52000 26.90000 0 27
-153.95000 -246.18000 33.95000 0 28
-153.39000 -245.09000 40.63000 0 29
-153.87000 -245.68000 47.62000 0 30
-155.17000 -247.65000 55.06000 0 31
-3.13000 -4.98000 -3.48000 0 0
-3.21000 -5.10000 -3.38000 0 1
-3.47000 -5.51000 -3.46000 0 2
-3.78000 -6.00000 -3.56000 0 3
-4.14000 -6.57000 -3.67000 0 4
-4.84000 -7.68000 -4.04000 0 5
-25.87000 -41.00000 -20.25000 0 6
-27.95000 -44.26000 -20.44000 0 7
-30.32000 -48.00000 -20.66000 0 8
-33.13000 -52.41000 -20.95000 0 9
-36.30000 -57.38000 -21.19000 0 10
-39.97000 -63.15000 -21.43000 0 11
0.00000 0.00000 0.00000 0 12
-43.12000 -68.05000 -19.09000 0 13
-48.58000 -76.60000 -19.28000 0 14
-54.76000 -86.29000 -19.25000 0 15
-63.38000 -100.81000 -19.56000 0 16
-68.55000 -108.98000 -18.09000 0 17
-74.30000 -118.03000 -16.28000 0 18
-108.16000 -171.68000 -18.93000 0 19
-69.83000 -110.81000 -9.15000 0 20
-166.17000 -263.47000 -14.52000 0 21
-166.67000 -264.05000 -7.25000 0 22
-173.41000 -274.63000 0.00000 0 23
-136.38000 -215.82000 5.92000 0 24
-54.70000 -86.50000 4.77000 0 25
-64.26000 -101.58000 8.40000 0 26
-155.70000 -245.92000 27.15000 0 27
-155.84000 -245.95000 34.04000 0 28
-156.10000 -246.26000 40.97000 0 29
-156.72000 -247.05000 48.06000 0 30
0.00000 0.00000 0.00000 0 31
-3.19000 -5.02000 -3.52000 0 0
-3.24000 -5.08000 -3.38000 0 1
-3.52000 -5.52000 -3.48000 0 2
-3.76000 -5.90000 -3.51000 0 3
-4.21000 -6.59000 -3.70000 0 4
-4.81000 -7.54000 -3.98000 0 5
-26.11000 -40.86000 -20.25000 0 6
-28.20000 -44.10000 -20.44000 0 7
-30.60000 -47.84000 -20.67000 0 8
-33.40000 -52.17000 -20.93000 0 9
-36.64000 -57.19000 -21.19000 0 10
-40.24000 -62.78000 -21.38000 0 11
-40.49000 -63.12000 -19.63000 0 12
-43.23000 -67.36000 -18.96000 0 13
-48.74000 -75.90000 -19.17000 0 14
-55.19000 -85.87000 -19.23000 0 15
-63.88000 -100.31000 -19.53000 0 16
-68.98000 -108.28000 -18.04000 0 17
-74.65000 -117.10000 -16.21000 0 18
-108.16000 -169.51000 -18.76000 0 19
0.00000 0.00000 0.00000 0 20
-167.36000 -262.00000 -14.50000 0 21
-169.84000 -265.68000 -7.32000 0 22
-157.53000 -246.33000 0.00000 0 23
-138.85000 -216.95000 5.97000 0 24
0.00000 0.00000 0.00000 0 25
-157.19000 -245.32000 20.37000 0 26
-157.82000 -246.11000 27.27000 0 27
-158.05000 -246.29000 34.22000 0 28
-158.55000 -246.98000 41.24000 0 29
-158.91000 -247.34000 48.30000 0 30
-159.35000 -247.84000 55.51000 0 31
-3.16000 -4.91000 -3.46000 0 0
-3.27000 -5.06000 -3.38000 0 1
-3.51000 -5.44000 -3.44000 0 2
-3.84000 -5.94000 -3.55000 0 3
-4.21000 -6.51000 -3.67000 0 4
-4.88000 -7.54000 -4.00000 0 5
-26.39000 -40.77000 -20.28000 0 6
-28.40000 -43.86000 -20.40000 0 7
-30.90000 -47.69000 -20.68000 0 8
-33.66000 -51.92000 -20.91000 0 9
-36.93000 -56.91000 -21.17000 0 10
-40.51000 -62.40000 -21.33000 0 11
-40.77000 -62.75000 -19.59000 0 12
-43.59000 -67.08000 -18.95000 0 13
-48.98000 -75.32000 -19.09000 0 14
-55.62000 -85.45000 -19.21000 0 15
-64.32000 -99.74000 -19.50000 0 16
-69.43000 -107.62000 -18.00000 0 17
-75.06000 -116.25000 -16.15000 0 18
-108.20000 -167.45000 -18.60000 0 19
0.00000 0.00000 0.00000 0 20
0.00000 0.00000 0.00000 0 21
0.00000 0.00000 0.00000 0 22
-158.42000 -244.59000 0.00000 0 23
0.00000 0.00000 0.00000 0 24
0.00000 0.00000 0.00000 0 25
-159.24000 -245.40000 20.45000 0 26
-159.77000 -246.03000 27.36000 0 27
-159.47000 -245.37000 34.22000 0 28
-159.67000 -245.59000 41.16000 0 29
-159.85000 -245.68000 48.15000 0 30
-160.84000 -247.02000 55.53000 0 31
-3.19000 -4.89000 -3.46000 0 0
-3.31000 -5.07000 -3.40000 0 1
-3.58000 -5.48000 -3.48000 0 2
-3.91000 -5.98000 -3.58000 0 3
-4.28000 -6.54000 -3.70000 0 4
-4.89000 -7.47000 -3.97000 0 5
-26.52000 -40.47000 -20.21000 0 6
-28.70000 -43.75000 -20.43000 0 7
-31.15000 -47.48000 -20.67000 0 8
-33.99000 -51.77000 -20.92000 0 9
-37.29000 -56.75000 -21.19000 0 10
-40.76000 -62.01000 -21.27000 0 11
-41.11000 -62.48000 -19.58000 0 12
-44.05000 -66.94000 -18.98000 0 13
-49.48000 -75.13000 -19.12000 0 14
-56.00000 -84.97000 -19.17000 0 15
-64.81000 -99.23000 -19.47000 0 16
-69.79000 -106.82000 -17.93000 0 17
-75.48000 -115.43000 -16.10000 0 18
-56.66000 -86.59000 -9.65000 0 19
0.00000 0.00000 0.00000 0 20
0.00000 0.00000 0.00000 0 21
0.00000 0.00000 0.00000 0 22
0.00000 0.00000 0.00000 0 23
0.00000 0.00000 0.00000 0 24
-55.80000 -84.95000 4.73000 0 25
-160.32000 -243.98000 20.41000 0 26
-161.72000 -245.92000 27.45000 0 27
-160.82000 -244.37000 34.20000 0 28
-160.47000 -243.74000 41.01000 0 29
-160.68000 -243.86000 47.97000 0 30
-162.08000 -245.81000 55.47000 0 31
-3.20000 -4.85000 -3.44000 0 0
-3.28000 -4.95000 -3.34000 0 1
-3.61000 -5.46000 -3.48000 0 2
-3.95000 -5.97000 -3.59000 0 3
-4.36000 -6.58000 -3.73000 0 4
-4.91000 -7.41000 -3.96000 0 5
-26.81000 -40.41000 -20.25000 0 6
-28.90000 -43.51000 -20.39000 0 7
-31.41000 -47.29000 -20.66000 0 8
-34.29000 -51.57000 -20.92000 0 9
-37.62000 -56.53000 -21.19000 0 10
-40.89000 -61.43000 -21.16000 0 11
-41.37000 -62.10000 -19.53000 0 12
-44.47000 -66.73000 -19.00000 0 13
-49.62000 -74.41000 -19.01000 0 14
-56.34000 -84.41000 -19.12000 0 15
0.00000 0.00000 0.00000 0 16
-56.94000 -86.07000 -14.50000 0 17
0.00000 0.00000 0.00000 0 18
0.00000 0.00000 0.00000 0 19
0.00000 0.00000 0.00000 0 20
-57.30000 -86.38000 -4.83000 0 21
-57.50000 -86.62000 -2.41000 0 22
-57.79000 -87.01000 0.00000 0 23
-57.99000 -87.25000 2.43000 0 24
-56.01000 -84.22000 4.71000 0 25
-161.15000 -242.19000 20.34000 0 26
-162.22000 -243.61000 27.30000 0 27
-161.69000 -242.63000 34.09000 0 28
-161.32000 -241.99000 40.87000 0 29
-161.49000 -242.05000 47.80000 0 30
-162.66000 -243.63000 55.19000 0 31
-3.30000 -4.93000 -3.51000 0 0
-3.38000 -5.05000 -3.41000 0 1
-3.63000 -5.42000 -3.47000 0 2
-3.99000 -5.95000 -3.59000 0 3
-4.43000 -6.60000 -3.76000 0 4
-4.95000 -7.37000 -3.95000 0 5
-27.02000 -40.22000 -20.24000 0 6
-29.16000 -43.36000 -20.40000 0 7
-31.68000 -47.09000 -20.65000 0 8
-34.60000 -51.39000 -20.93000 0 9
-37.93000 -56.30000 -21.18000 0 10
-41.14000 -61.04000 -21.10000 0 11
-41.74000 -61.88000 -19.54000 0 12
-44.85000 -66.48000 -19.00000 0 13
-50.06000 -74.14000 -19.01000 0 14
-56.77000 -84.01000 -19.10000 0 15
0.00000 0.00000 0.00000 0 16
-57.47000 -85.79000 -14.51000 0 17
-57.85000 -86.29000 -12.13000 0 18
-57.99000 -86.43000 -9.71000 0 19
0.00000 0.00000 0.00000 0 20
-165.71000 -246.70000 -13.86000 0 21
-166.18000 -247.21000 -6.91000 0 22
-166.68000 -247.86000 0.00000 0 23
0.00000 0.00000 0.00000 0 24
-56.32000 -83.63000 4.70000 0 25
-161.97000 -240.41000 20.26000 0 26
-163.22000 -242.08000 27.23000 0 27
-162.55000 -240.90000 33.98000 0 28
-162.13000 -240.19000 40.72000 0 29
-162.31000 -240.28000 47.63000 0 30
-162.81000 -240.83000 54.77000 0 31
-3.33000 -4.92000 -3.52000 0 0
-3.42000 -5.05000 -3.42000 0 1
-3.66000 -5.40000 -3.47000 0 2
-4.01000 -5.91000 -3.58000 0 3
-4.49000 -6.60000 -3.78000 0 4
-5.11000 -7.52000 -4.05000 0 5
-27.28000 -40.09000 -20.25000 0 6
-29.43000 -43.22000 -20.42000 0 7
-32.01000 -46.98000 -20.69000 0 8
-34.88000 -51.18000 -20.92000 0 9
-38.24000 -56.06000 -21.17000 0 10
-41.38000 -60.62000 -21.04000 0 11
-42.09000 -61.64000 -19.54000 0 12
-45.14000 -66.05000 -18.95000 0 13
-50.54000 -73.90000 -19.03000 0 14
-57.18000 -83.54000 -19.07000 0 15
0.00000 0.00000 0.00000 0 16
-70.99000 -104.62000 -17.77000 0 17
-76.62000 -112.88000 -15.93000 0 18
-108.24000 -159.33000 -17.97000 0 19
0.00000 0.00000 0.00000 0 20
-168.65000 -247.97000 -13.98000 0 21
-169.33000 -248.79000 -6.98000 0 22
-170.38000 -250.14000 0.00000 0 23
-150.56000 -220.96000 6.20000 0 24
-56.63000 -83.05000 4.68000 0 25
-162.81000 -238.59000 20.19000 0 26
-163.36000 -239.22000 27.02000 0 27
-163.40000 -239.17000 33.87000 0 28
-163.01000 -238.44000 40.59000 0 29
-163.15000 -238.45000 47.46000 0 30
-164.37000 -240.15000 54.82000 0 31
-3.32000 -4.83000 -3.47000 0 0
-3.42000 -4.98000 -3.39000 0 1
-3.71000 -5.39000 -3.48000 0 2
-4.05000 -5.89000 -3.58000 0 3
-4.52000 -6.56000 -3.77000 0 4
-5.19000 -7.53000 -4.07000 0 5
-27.48000 -39.89000 -20.23000 0 6
-29.66000 -43.02000 -20.40000 0 7
-32.26000 -46.75000 -20.67000 0 8
-35.20000 -50.98000 -20.93000 0 9
-38.54000 -55.79000 -21.16000 0 10
-41.63000 -60.21000 -20.99000 0 11
-42.41000 -61.32000 -19.52000 0 12
-45.51000 -65.75000 -18.94000 0 13
-51.00000 -73.63000 -19.04000 0 14
-57.56000 -83.04000 -19.03000 0 15
-66.77000 -97.23000 -19.38000 0 16
-71.49000 -104.02000 -17.73000 0 17
-76.98000 -111.96000 -15.86000 0 18
-108.26000 -157.34000 -17.81000 0 19
0.00000 0.00000 0.00000 0 20
-172.00000 -249.70000 -14.14000 0 21
-172.71000 -250.55000 -7.06000 0 22
-173.57000 -251.61000 0.00000 0 23
-151.27000 -219.19000 6.18000 0 24
-56.95000 -82.47000 4.67000 0 25
-163.69000 -236.85000 20.13000 0 26
-164.46000 -237.78000 26.97000 0 27
-164.99000 -238.46000 33.90000 0 28
-163.85000 -236.63000 40.45000 0 29
-163.98000 -236.65000 47.30000 0 30
-165.28000 -238.43000 54.65000 0 31
-3.37000 -4.86000 -3.50000 0 0
-3.46000 -4.98000 -3.40000 0 1
-3.74000 -5.37000 -3.48000 0 2
-4.07000 -5.85000 -3.58000 0 3
-4.56000 -6.55000 -3.78000 0 4
-5.34000 -7.67000 -4.16000 0 5
-27.76000 -39.81000 -20.27000 0 6
-29.88000 -42.82000 -20.39000 0 7
-32.53000 -46.57000 -20.67000 0 8
-35.47000 -50.77000 -20.92000 0 9
-38.88000 -55.60000 -21.17000 0 10
-41.89000 -59.87000 -20.95000 0 11
-42.63000 -60.91000 -19.46000 0 12
-45.93000 -65.57000 -18.97000 0 13
-51.21000 -73.06000 -18.96000 0 14
-57.94000 -82.60000 -19.01000 0 15
-67.28000 -96.81000 -19.37000 0 16
-71.87000 -103.34000 -17.69000 0 17
-77.32000 -111.12000 -15.80000 0 18
-107.93000 -155.00000 -17.62000 0 19
-159.56000 -228.98000 -19.51000 0 20
-175.08000 -251.16000 -14.27000 0 21
-175.87000 -252.11000 -7.13000 0 22
-176.41000 -252.69000 0.00000 0 23
-152.22000 -217.97000 6.17000 0 24
-57.31000 -82.00000 4.66000 0 25
-164.45000 -235.13000 20.06000 0 26
-165.23000 -236.06000 26.88000 0 27
-166.13000 -237.26000 33.87000 0 28
-164.15000 -234.26000 40.20000 0 29
-164.77000 -234.97000 47.14000 0 30
-165.50000 -235.92000 54.29000 0 31
-3.35000 -4.76000 -3.45000 0 0
-3.53000 -5.01000 -3.44000 0 1
-3.80000 -5.39000 -3.51000 0 2
-4.08000 -5.80000 -3.56000 0 3
-4.67000 -6.63000 -3.84000 0 4
0.00000 0.00000 0.00000 0 5
-28.00000 -39.66000 -20.28000 0 6
-30.13000 -42.64000 -20.39000 0 7
-32.83000 -46.43000 -20.69000 0 8
-35.80000 -50.60000 -20.94000 0 9
-39.29000 -55.50000 -21.22000 0 10
-42.09000 -59.42000 -20.88000 0 11
-42.90000 -60.53000 -19.42000 0 12
-46.29000 -65.29000 -18.96000 0 13
-51.40000 -72.44000 -18.88000 0 14
-58.32000 -82.12000 -18.97000 0 15
-67.79000 -96.31000 -19.35000 0 16
-72.37000 -102.78000 -17.66000 0 17
-77.68000 -110.24000 -15.74000 0 18
-107.92000 -153.04000 -17.47000 0 19
-160.82000 -227.98000 -19.51000 0 20
-178.28000 -252.55000 -14.41000 0 21
-166.43000 -235.58000 -6.69000 0 22
0.00000 0.00000 0.00000 0 23
-153.26000 -216.70000 6.16000 0 24
-57.63000 -81.43000 4.65000 0 25
-165.26000 -233.41000 19.99000 0 26
-165.79000 -233.99000 26.75000 0 27
0.00000 0.00000 0.00000 0 28
-164.47000 -231.87000 39.95000 0 29
-165.60000 -233.28000 47.00000 0 30
-186.10000 -261.97000 60.54000 0 31
-3.43000 -4.82000 -3.50000 0 0
-3.54000 -4.96000 -3.42000 0 1
-3.79000 -5.32000 -3.47000 0 2
-4.14000 -5.80000 -3.58000 0 3
-4.89000 -6.85000 -3.98000 0 4
-26.28000 -36.79000 -20.13000 0 5
-28.19000 -39.43000 -20.25000 0 6
-30.43000 -42.54000 -20.42000 0 7
-33.08000 -46.23000 -20.69000 0 8
0.00000 0.00000 0.00000 0 9
-39.62000 -55.29000 -21.22000 0 10
0.00000 0.00000 0.00000 0 11
-43.17000 -60.17000 -19.38000 0 12
-46.61000 -64.94000 -18.94000 0 13
-51.75000 -72.05000 -18.85000 0 14
-58.74000 -81.72000 -18.96000 0 15
-68.26000 -95.81000 -19.32000 0 16
-72.92000 -102.31000 -17.65000 0 17
-77.95000 -109.29000 -15.67000 0 18
-107.89000 -151.15000 -17.32000 0 19
-161.11000 -225.62000 -19.38000 0 20
0.00000 0.00000 0.00000 0 21
0.00000 0.00000 0.00000 0 22
-165.10000 -230.78000 0.00000 0 23
-153.89000 -214.95000 6.13000 0 24
-57.95000 -80.89000 4.64000 0 25
-166.06000 -231.69000 19.93000 0 26
-167.26000 -233.20000 26.77000 0 27
-167.62000 -233.53000 33.61000 0 28
-165.28000 -230.18000 39.82000 0 29
-166.43000 -231.61000 46.85000 0 30
-167.50000 -232.93000 54.05000 0 31
-3.50000 -4.85000 -3.55000 0 0
-3.56000 -4.93000 -3.41000 0 1
-3.81000 -5.28000 -3.46000 0 2
-4.17000 -5.78000 -3.58000 0 3
-4.94000 -6.84000 -3.99000 0 4
-26.51000 -36.65000 -20.14000 0 5
-28.40000 -39.26000 -20.24000 0 6
-30.63000 -42.31000 -20.39000 0 7
-33.32000 -45.98000 -20.67000 0 8
-36.34000 -50.13000 -20.92000 0 9
-39.96000 -55.09000 -21.23000 0 10
0.00000 0.00000 0.00000 0 11
-43.47000 -59.86000 -19.36000 0 12
-46.92000 -64.55000 -18.91000 0 13
-51.85000 -71.28000 -18.73000 0 14
-59.23000 -81.37000 -18.96000 0 15
-68.72000 -95.28000 -19.30000 0 16
-73.52000 -101.86000 -17.65000 0 17
-78.31000 -108.47000 -15.62000 0 18
-107.56000 -148.86000 -17.13000 0 19
-161.98000 -224.01000 -19.33000 0 20
-165.67000 -229.03000 -13.18000 0 21
-165.84000 -229.09000 -6.56000 0 22
-165.75000 -228.81000 0.00000 0 23
-153.92000 -212.40000 6.08000 0 24
-58.26000 -80.34000 4.62000 0 25
-166.90000 -229.98000 19.86000 0 26
-168.12000 -231.48000 26.69000 0 27
-168.08000 -231.35000 33.44000 0 28
-166.10000 -228.46000 39.69000 0 29
-167.22000 -229.83000 46.69000 0 30
-191.67000 -263.33000 61.36000 0 31
-3.42000 -4.69000 -3.44000 0 0
-3.57000 -4.89000 -3.40000 0 1
-3.86000 -5.28000 -3.48000 0 2
-4.19000 -5.74000 -3.57000 0 3
-4.99000 -6.82000 -4.00000 0 4
-26.74000 -36.53000 -20.15000 0 5
-28.63000 -39.07000 -20.23000 0 6
-30.91000 -42.15000 -20.41000 0 7
-33.63000 -45.85000 -20.69000 0 8
-36.62000 -49.90000 -20.91000 0 9
-40.41000 -55.02000 -21.30000 0 10
0.00000 0.00000 0.00000 0 11
-43.64000 -59.35000 -19.28000 0 12
-47.20000 -64.16000 -18.87000 0 13
-52.33000 -71.08000 -18.76000 0 14
-59.64000 -80.95000 -18.94000 0 15
-69.17000 -94.71000 -19.27000 0 16
-73.93000 -101.19000 -17.61000 0 17
-78.68000 -107.62000 -15.56000 0 18
-107.36000 -146.74000 -16.96000 0 19
-162.29000 -221.74000 -19.21000 0 20
-166.22000 -226.95000 -13.12000 0 21
0.00000 0.00000 0.00000 0 22
-166.57000 -227.17000 0.00000 0 23
-154.78000 -210.95000 6.07000 0 24
-58.63000 -79.85000 4.61000 0 25
-167.71000 -228.31000 19.80000 0 26
-193.72000 -263.53000 30.51000 0 27
-168.94000 -229.65000 33.33000 0 28
-166.85000 -226.73000 39.56000 0 29
-167.99000 -228.11000 46.54000 0 30
-193.46000 -262.51000 61.43000 0 31
-3.46000 -4.69000 -3.45000 0 0
-3.63000 -4.92000 -3.43000 0 1
-3.94000 -5.33000 -3.53000 0 2
-4.24000 -5.73000 -3.58000 0 3
-5.06000 -6.84000 -4.03000 0 4
-26.95000 -36.37000 -20.15000 0 5
-28.86000 -38.92000 -20.24000 0 6
-31.11000 -41.93000 -20.39000 0 7
-33.87000 -45.63000 -20.68000 0 8
-36.89000 -49.68000 -20.91000 0 9
-40.86000 -54.98000 -21.37000 0 10
-42.78000 -57.52000 -20.55000 0 11
-43.85000 -58.94000 -19.23000 0 12
-47.60000 -63.93000 -18.88000 0 13
-52.45000 -70.42000 -18.66000 0 14
-59.98000 -80.47000 -18.91000 0 15
-69.65000 -94.24000 -19.25000 0 16
-74.30000 -100.48000 -17.56000 0 17
-79.03000 -106.81000 -15.51000 0 18
-107.30000 -144.91000 -16.82000 0 19
-163.25000 -220.38000 -19.18000 0 20
-167.04000 -225.33000 -13.08000 0 21
0.00000 0.00000 0.00000 0 22
-167.31000 -225.45000 0.00000 0 23
-155.29000 -209.10000 6.04000 0 24
-58.97000 -79.38000 4.61000 0 25
-168.51000 -226.65000 19.74000 0 26
0.00000 0.00000 0.00000 0 27
0.00000 0.00000 0.00000 0 28
-167.61000 -225.03000 39.43000 0 29
-168.76000 -226.49000 46.40000 0 30
-195.35000 -261.99000 61.57000 0 31
-3.51000 -4.69000 -3.47000 0 0
-3.67000 -4.91000 -3.44000 0 1
-3.97000 -5.31000 -3.53000 0 2
-4.30000 -5.75000 -3.60000 0 3
-4.95000 -6.61000 -3.91000 0 4
-27.14000 -36.19000 -20.14000 0 5
-29.06000 -38.73000 -20.22000 0 6
-31.38000 -41.80000 -20.41000 0 7
-34.16000 -45.46000 -20.69000 0 8
-37.22000 -49.52000 -20.93000 0 9
-41.13000 -54.68000 -21.35000 0 10
-43.02000 -57.15000 -20.51000 0 11
-44.21000 -58.71000 -19.24000 0 12
-47.63000 -63.21000 -18.75000 0 13
-52.78000 -69.99000 -18.63000 0 14
-60.32000 -79.93000 -18.86000 0 15
-69.98000 -93.58000 -19.19000 0 16
-74.73000 -99.86000 -17.53000 0 17
-79.41000 -106.08000 -15.47000 0 18
-106.89000 -142.68000 -16.63000 0 19
0.00000 0.00000 0.00000 0 20
-167.69000 -223.59000 -13.03000 0 21
0.00000 0.00000 0.00000 0 22
-168.15000 -223.88000 0.00000 0 23
-155.59000 -207.08000 6.01000 0 24
-59.34000 -78.92000 4.60000 0 25
-169.24000 -224.92000 19.68000 0 26
-169.58000 -225.20000 26.30000 0 27
0.00000 0.00000 0.00000 0 28
-168.37000 -223.35000 39.30000 0 29
-169.55000 -224.76000 46.25000 0 30
-170.31000 -225.69000 53.27000 0 31
-3.55000 -4.69000 -3.48000 0 0
-3.72000 -4.92000 -3.46000 0 1
-4.03000 -5.32000 -3.54000 0 2
-4.31000 -5.69000 -3.58000 0 3
-4.96000 -6.53000 -3.88000 0 4
-27.34000 -36.01000 -20.13000 0 5
-29.24000 -38.50000 -20.19000 0 6
-31.65000 -41.64000 -20.42000 0 7
-34.38000 -45.22000 -20.67000 0 8
-37.48000 -49.26000 -20.91000 0 9
-41.46000 -54.45000 -21.35000 0 10
-43.22000 -56.73000 -20.45000 0 11
-44.43000 -58.28000 -19.18000 0 12
-47.92000 -62.84000 -18.72000 0 13
-53.17000 -69.67000 -18.62000 0 14
-60.70000 -79.48000 -18.84000 0 15
-70.45000 -93.05000 -19.17000 0 16
-75.10000 -99.16000 -17.48000 0 17
-79.75000 -105.23000 -15.41000 0 18
-106.75000 -140.74000 -16.48000 0 19
0.00000 0.00000 0.00000 0 20
-168.52000 -221.94000 -12.99000 0 21
