ply
format ascii 1.0
element vertex 1469
property float x
property float y
property float z
property uint16 refc
property uint16 ring_number
element face 0
property list uint8 int32 vertex_index
end_header
-5.99300 -10.59200 -1.99900 3 16
-6.51300 -11.50800 -1.85800 7 17
-7.06600 -12.47400 -1.67400 7 18
-10.87200 -19.17800 -2.05600 1 19
-13.02300 -22.96300 -1.84600 33 20
-13.07900 -23.04200 -1.23500 36 21
-13.11700 -23.09100 -0.61600 31 22
-8.15100 -14.34300 0.00000 9 23
0.00000 0.00000 0.00000 100 24
-5.44100 -9.55900 0.51200 11 25
-5.47000 -9.60600 0.77200 13 26
-13.40300 -23.51700 2.52500 11 27
-13.45100 -23.58200 3.17400 27 28
-13.50200 -23.66200 3.82800 27 29
0.00000 0.00000 0.00000 76 30
-13.61400 -23.82100 5.16900 31 31
-0.29000 -0.50500 -0.34500 34 0
-0.30100 -0.52400 -0.33900 25 1
-0.31900 -0.55700 -0.34100 25 2
-0.34500 -0.60100 -0.34800 12 3
-0.38100 -0.66200 -0.36100 9 4
-0.42400 -0.73800 -0.37900 5 5
-0.48800 -0.84900 -0.40900 9 6
-2.60600 -4.52500 -2.03900 1 7
-2.83700 -4.92400 -2.06800 2 8
-3.09600 -5.36800 -2.09400 4 9
-3.39000 -5.87500 -2.11600 21 10
-3.75800 -6.50900 -2.15500 12 11
-3.84400 -6.65400 -2.01100 2 12
-4.05700 -7.01900 -1.92100 55 13
-4.67600 -8.08400 -1.98500 34 14
-5.17700 -8.94100 -1.94600 2 15
-6.02800 -10.51300 -1.99100 3 16
-6.56000 -11.43600 -1.85300 6 17
-7.11100 -12.38600 -1.66700 7 18
-8.18200 -14.24100 -1.53200 2 19
0.00000 0.00000 0.00000 76 20
0.00000 0.00000 0.00000 75 21
-8.22100 -14.28000 -0.38200 3 22
-13.42600 -23.31100 0.00000 20 23
-11.90700 -20.65700 0.55300 11 24
-5.55300 -9.62600 0.51800 10 25
-5.58100 -9.67100 0.78000 13 26
-13.64200 -23.62000 2.54400 23 27
-13.70300 -23.70500 3.20100 33 28
-13.75400 -23.78500 3.86100 28 29
-13.79700 -23.84000 4.52500 32 30
-13.87100 -23.94800 5.21400 27 31
-0.29600 -0.51000 -0.34900 33 0
-0.30000 -0.51700 -0.33600 26 1
-0.32500 -0.56000 -0.34400 25 2
-0.34900 -0.60000 -0.34900 12 3
-0.38800 -0.66600 -0.36500 8 4
-0.43600 -0.74800 -0.38500 4 5
-0.48900 -0.84000 -0.40600 3 6
-2.63600 -4.51800 -2.04200 2 7
-2.86300 -4.90200 -2.06600 2 8
-3.12800 -5.35400 -2.09500 4 9
-3.42600 -5.85800 -2.11700 23 10
-3.79300 -6.48000 -2.15300 12 11
-3.86700 -6.60500 -2.00300 2 12
-4.10000 -6.99800 -1.92100 52 13
-4.73500 -8.07400 -1.98900 37 14
-5.21700 -8.88800 -1.94100 2 15
-6.07700 -10.45800 -1.98700 3 16
-6.60700 -11.36100 -1.84700 8 17
-7.15700 -12.30200 -1.66200 7 18
-10.83800 -18.61500 -2.00900 1 19
-13.50700 -23.18000 -1.87600 30 20
-13.55900 -23.26000 -1.25500 33 21
-13.60400 -23.31800 -0.62600 17 22
-12.58000 -21.54600 0.00000 50 23
-12.13400 -20.77300 0.55800 11 24
-5.66400 -9.68900 0.52300 10 25
-5.69500 -9.73400 0.78800 12 26
-13.90100 -23.74200 2.56600 25 27
-13.95400 -23.82300 3.22800 34 28
-14.01800 -23.91300 3.89500 28 29
-14.06300 -23.97000 4.56500 32 30
-14.12900 -24.07200 5.25800 28 31
-0.29500 -0.50200 -0.34500 34 0
-0.30400 -0.51600 -0.33700 26 1
-0.32800 -0.55600 -0.34300 25 2
-0.35600 -0.60500 -0.35200 11 3
-0.39200 -0.66400 -0.36500 8 4
-0.44000 -0.74500 -0.38500 5 5
-2.48000 -4.19500 -2.03500 1 6
-2.65900 -4.49500 -2.03900 2 7
-2.89600 -4.89100 -2.06900 2 8
-3.15700 -5.33000 -2.09300 4 9
-3.46100 -5.83800 -2.11700 23 10
-3.82800 -6.45300 -2.15100 12 11
-3.89500 -6.56300 -1.99800 2 12
-4.15100 -6.98800 -1.92600 47 13
-4.75700 -8.00200 -1.97800 39 14
-5.26700 -8.85400 -1.94100 2 15
-6.12900 -10.40500 -1.98400 3 16
-6.64800 -11.27700 -1.83900 13 17
-7.20000 -12.20800 -1.65500 7 18
-10.78700 -18.27700 -1.98000 1 19
-12.63500 -21.39000 -1.73700 44 20
-12.64900 -21.40600 -1.15900 51 21
-12.68600 -21.45200 -0.57800 23 22
-13.72600 -23.19200 0.00000 58 23
-12.35600 -20.86900 0.56200 14 24
-5.78000 -9.75500 0.52800 9 25
-5.81400 -9.80300 0.79600 12 26
-14.15700 -23.85200 2.58700 27 27
-14.21700 -23.94500 3.25600 34 28
-14.27400 -24.02200 3.92700 28 29
-14.32400 -24.08600 4.60400 30 30
-14.41400 -24.22800 5.31100 20 31
-0.30200 -0.50600 -0.34900 33 0
-0.30600 -0.51300 -0.33600 26 1
-0.33300 -0.55700 -0.34500 25 2
-0.36400 -0.61000 -0.35700 11 3
-0.39500 -0.66000 -0.36400 8 4
-0.45100 -0.75400 -0.39100 5 5
-2.49600 -4.16800 -2.02900 1 6
-2.69100 -4.49000 -2.04400 2 7
-2.92100 -4.87200 -2.06700 2 8
-3.18800 -5.31200 -2.09300 4 9
-3.49400 -5.81800 -2.11700 21 10
-3.86100 -6.42600 -2.15000 11 11
-3.92400 -6.52600 -1.99300 2 12
-4.18600 -6.95800 -1.92400 47 13
-4.79500 -7.96600 -1.97600 39 14
-5.32000 -8.82900 -1.94200 2 15
-6.17200 -10.34200 -1.97800 3 16
-6.69000 -11.20600 -1.83400 14 17
-7.24800 -12.13100 -1.65000 9 18
-10.77300 -18.01500 -1.95800 3 19
-13.79400 -23.05700 -1.87800 52 20
-13.82800 -23.09700 -1.25500 35 21
-13.94600 -23.27500 -0.63000 27 22
-14.17500 -23.64800 0.00000 42 23
-12.58900 -20.98400 0.56800 12 24
-5.89800 -9.82400 0.53400 8 25
-5.92800 -9.87000 0.80500 12 26
-14.41900 -23.98800 2.61100 27 27
-14.50200 -24.10800 3.28900 25 28
-14.53800 -24.15700 3.96200 30 29
-14.58000 -24.20900 4.64200 33 30
-14.70400 -24.39500 5.36600 16 31
-0.30300 -0.50200 -0.34700 33 0
-0.31300 -0.51700 -0.33900 25 1
-0.33500 -0.55400 -0.34400 25 2
-0.36800 -0.60800 -0.35700 14 3
-0.39800 -0.65600 -0.36300 8 4
-0.45700 -0.75400 -0.39200 5 5
-2.51500 -4.14400 -2.02500 1 6
-2.71500 -4.47100 -2.04200 2 7
-2.94600 -4.85000 -2.06500 2 8
-3.21600 -5.29000 -2.09200 4 9
-3.52700 -5.79600 -2.11700 22 10
-3.89700 -6.40200 -2.14900 14 11
-3.94400 -6.47500 -1.98500 3 12
-4.22500 -6.93300 -1.92300 47 13
-4.82100 -7.90400 -1.96800 37 14
-5.36100 -8.78300 -1.93800 3 15
-6.22000 -10.28800 -1.97500 3 16
-6.72900 -11.12500 -1.82700 13 17
-7.29000 -12.04300 -1.64300 9 18
-10.78600 -17.80300 -1.94200 3 19
-13.95700 -23.02800 -1.88300 22 20
-13.98900 -23.06300 -1.25800 22 21
-14.01200 -23.08200 -0.62700 23 22
0.00000 0.00000 0.00000 18 23
-12.87000 -21.17600 0.57500 12 24
-6.01600 -9.89100 0.53900 8 25
-6.05000 -9.94300 0.81300 12 26
-14.73500 -24.19700 2.64200 18 27
-14.77800 -24.24900 3.32000 10 28
-14.79500 -24.26700 3.99400 30 29
-14.84900 -24.33700 4.68300 31 30
-14.97100 -24.51700 5.41200 17 31
-0.30800 -0.50300 -0.34900 33 0
-0.31300 -0.51100 -0.33700 26 1
-0.34000 -0.55500 -0.34600 19 2
-0.37000 -0.60300 -0.35500 14 3
-0.40600 -0.66200 -0.36700 7 4
-0.46400 -0.75600 -0.39500 5 5
-2.53700 -4.12800 -2.02400 2 6
-2.74300 -4.45800 -2.04400 2 7
-2.97400 -4.83300 -2.06500 2 8
-3.24800 -5.27300 -2.09200 4 9
-3.56400 -5.78200 -2.11900 21 10
-3.93500 -6.38200 -2.15000 8 11
-3.96900 -6.43200 -1.97800 2 12
-4.25300 -6.89000 -1.91800 47 13
-4.79800 -7.76700 -1.94000 42 14
-5.39600 -8.72700 -1.93300 3 15
-6.26200 -10.22300 -1.96900 3 16
-6.77100 -11.05000 -1.82100 14 17
-7.33500 -11.96000 -1.63800 11 18
-10.78600 -17.57400 -1.92300 3 19
-14.21700 -23.15500 -1.90000 15 20
-14.24900 -23.19000 -1.26900 17 21
-14.27300 -23.21000 -0.63200 21 22
-14.30700 -23.25700 0.00000 14 23
-13.11100 -21.29600 0.58000 9 24
-6.13800 -9.96200 0.54500 6 25
-6.17200 -10.01300 0.82200 10 26
-15.00500 -24.32300 2.66600 18 27
-15.24200 -24.69000 3.39300 16 28
-15.06500 -24.39300 4.02900 28 29
-15.11500 -24.45400 4.72300 31 30
-15.25000 -24.65400 5.46100 17 31
-0.30800 -0.49700 -0.34600 34 0
-0.31700 -0.51100 -0.33700 26 1
-0.34300 -0.55300 -0.34600 24 2
-0.37300 -0.60100 -0.35500 11 3
-0.41200 -0.66300 -0.36900 7 4
-0.47700 -0.76700 -0.40200 7 5
-2.56200 -4.11500 -2.02500 2 6
-2.76800 -4.44200 -2.04400 2 7
-3.00700 -4.82200 -2.06800 2 8
-3.27700 -5.25300 -2.09200 4 9
-3.59500 -5.75800 -2.11800 20 10
-3.96600 -6.34700 -2.14600 8 11
-3.99600 -6.39300 -1.97300 2 12
-4.25900 -6.80800 -1.90300 52 13
-4.79700 -7.66200 -1.92100 58 14
-5.43600 -8.67700 -1.92900 4 15
-6.29700 -10.14800 -1.96200 3 16
-6.81700 -10.97800 -1.81600 14 17
-7.38400 -11.88600 -1.63300 14 18
-10.80000 -17.37100 -1.90800 3 19
-14.48900 -23.28700 -1.91800 18 20
-14.50700 -23.30700 -1.28000 25 21
-14.50500 -23.28600 -0.63700 18 22
-17.24800 -27.66700 0.00000 33 23
-13.36000 -21.42200 0.58600 13 24
-6.26500 -10.03800 0.55100 7 25
-6.30200 -10.09000 0.83100 11 26
-15.28500 -24.45200 2.69000 15 27
-15.39500 -24.61800 3.39500 16 28
-15.33900 -24.50900 4.06300 28 29
-15.38700 -24.56800 4.76200 28 30
-15.51700 -24.76500 5.50600 17 31
-0.31300 -0.49800 -0.34800 33 0
-0.32100 -0.51000 -0.33800 25 1
-0.34700 -0.55100 -0.34600 24 2
-0.37800 -0.60000 -0.35600 11 3
-0.41400 -0.65700 -0.36700 7 4
-0.48400 -0.76800 -0.40400 14 5
-2.58700 -4.10000 -2.02500 2 6
-2.79500 -4.42600 -2.04400 2 7
-3.03200 -4.80000 -2.06600 2 8
-3.31300 -5.24100 -2.09500 4 9
-3.63000 -5.73800 -2.11900 21 10
-3.99700 -6.31500 -2.14300 10 11
0.00000 0.00000 0.00000 42 12
-4.31200 -6.80500 -1.90900 47 13
-4.85800 -7.66000 -1.92800 52 14
-5.47600 -8.62900 -1.92500 6 15
-6.33800 -10.08100 -1.95600 3 16
-6.85500 -10.89800 -1.80900 17 17
-7.43000 -11.80300 -1.62800 14 18
-10.81600 -17.16800 -1.89300 2 19
-6.98300 -11.08100 -0.91500 6 20
-16.61700 -26.34700 -1.45200 24 21
-16.66700 -26.40500 -0.72500 12 22
-17.34100 -27.46300 0.00000 42 23
-13.63800 -21.58200 0.59200 13 24
-5.47000 -8.65000 0.47700 1 25
-6.42600 -10.15800 0.84000 11 26
-15.57000 -24.59200 2.71500 19 27
-15.58400 -24.59500 3.40400 21 28
-15.61000 -24.62600 4.09700 28 29
-15.67200 -24.70500 4.80600 33 30
0.00000 0.00000 0.00000 100 31
-0.31900 -0.50200 -0.35200 33 0
-0.32400 -0.50800 -0.33800 25 1
-0.35200 -0.55200 -0.34800 19 2
-0.37600 -0.59000 -0.35100 12 3
-0.42100 -0.65900 -0.37000 7 4
-0.48100 -0.75400 -0.39800 19 5
-2.61100 -4.08600 -2.02500 2 6
-2.82000 -4.41000 -2.04400 2 7
-3.06000 -4.78400 -2.06700 2 8
-3.34000 -5.21700 -2.09300 4 9
-3.66400 -5.71900 -2.11900 21 10
-4.02400 -6.27800 -2.13800 1 11
-4.04900 -6.31200 -1.96300 9 12
-4.32300 -6.73600 -1.89600 55 13
-4.87400 -7.59000 -1.91700 48 14
-5.51900 -8.58700 -1.92300 6 15
-6.38800 -10.03100 -1.95300 3 16
-6.89800 -10.82800 -1.80400 16 17
-7.46500 -11.71000 -1.62100 12 18
-10.81600 -16.95100 -1.87600 2 19
0.00000 0.00000 0.00000 4 20
-16.73600 -26.20000 -1.45000 12 21
-16.98400 -26.56800 -0.73200 17 22
-15.75300 -24.63300 0.00000 42 23
-13.88500 -21.69500 0.59700 13 24
0.00000 0.00000 0.00000 39 25
-15.71900 -24.53200 2.03700 27 26
-15.78200 -24.61100 2.72700 32 27
-15.80500 -24.62900 3.42200 38 28
-15.85500 -24.69800 4.12400 35 29
-15.89100 -24.73400 4.83000 49 30
-15.93500 -24.78400 5.55100 30 31
-0.31600 -0.49100 -0.34600 34 0
-0.32700 -0.50600 -0.33800 25 1
-0.35100 -0.54400 -0.34400 25 2
-0.38400 -0.59400 -0.35500 11 3
-0.42100 -0.65100 -0.36700 7 4
-0.48800 -0.75400 -0.40000 15 5
-2.63900 -4.07700 -2.02800 2 6
-2.84000 -4.38600 -2.04000 2 7
-3.09000 -4.76900 -2.06800 2 8
-3.36600 -5.19200 -2.09100 6 9
-3.69300 -5.69100 -2.11700 22 10
-4.05100 -6.24000 -2.13300 2 11
-4.07700 -6.27500 -1.95900 12 12
-4.35900 -6.70800 -1.89500 55 13
-4.89800 -7.53200 -1.90900 48 14
-5.56200 -8.54500 -1.92100 8 15
-6.43200 -9.97400 -1.95000 3 16
-6.94300 -10.76200 -1.80000 14 17
-7.50600 -11.62500 -1.61500 13 18
-10.82000 -16.74500 -1.86000 2 19
0.00000 0.00000 0.00000 4 20
0.00000 0.00000 0.00000 48 21
0.00000 0.00000 0.00000 20 22
-15.84200 -24.45900 0.00000 29 23
0.00000 0.00000 0.00000 42 24
0.00000 0.00000 0.00000 100 25
-15.92400 -24.54000 2.04500 31 26
-15.97700 -24.60300 2.73600 35 27
-15.94700 -24.53700 3.42200 22 28
-15.96700 -24.55900 4.11600 42 29
-15.98500 -24.56800 4.81500 49 30
-16.08400 -24.70200 5.55300 8 31
-0.31900 -0.48900 -0.34600 34 0
-0.33100 -0.50700 -0.34000 25 1
-0.35800 -0.54800 -0.34800 19 2
-0.39100 -0.59800 -0.35800 11 3
-0.42800 -0.65400 -0.37000 7 4
-0.48900 -0.74700 -0.39700 21 5
-2.65200 -4.04700 -2.02100 2 6
-2.87000 -4.37500 -2.04300 2 7
-3.11500 -4.74800 -2.06700 2 8
-3.39900 -5.17700 -2.09200 4 9
-3.72900 -5.67500 -2.11900 22 10
-4.07600 -6.20100 -2.12700 2 11
-4.11100 -6.24800 -1.95800 9 12
-4.40500 -6.69400 -1.89800 59 13
-4.94800 -7.51300 -1.91200 52 14
-5.60000 -8.49700 -1.91700 8 15
-6.48100 -9.92300 -1.94700 3 16
-6.97900 -10.68200 -1.79300 19 17
-7.54800 -11.54300 -1.61000 10 18
-5.66600 -8.65900 -0.96500 2 19
0.00000 0.00000 0.00000 100 20
0.00000 0.00000 0.00000 81 21
0.00000 0.00000 0.00000 88 22
0.00000 0.00000 0.00000 54 23
0.00000 0.00000 0.00000 100 24
-5.58000 -8.49500 0.47300 17 25
-16.03200 -24.39800 2.04100 34 26
-16.17200 -24.59200 2.74500 10 27
-16.08200 -24.43700 3.42000 38 28
-16.04700 -24.37400 4.10100 43 29
-16.06800 -24.38600 4.79700 48 30
-16.20800 -24.58100 5.54700 8 31
-0.32000 -0.48500 -0.34400 34 0
-0.32800 -0.49500 -0.33400 26 1
-0.36100 -0.54600 -0.34800 19 2
-0.39500 -0.59700 -0.35900 11 3
-0.43600 -0.65800 -0.37300 6 4
-0.49100 -0.74100 -0.39600 21 5
-2.68100 -4.04100 -2.02500 2 6
-2.89000 -4.35100 -2.03900 2 7
-3.14100 -4.72900 -2.06600 3 8
-3.42900 -5.15700 -2.09200 6 9
-3.76200 -5.65300 -2.11900 21 10
-4.08900 -6.14300 -2.11600 1 11
-4.13700 -6.21000 -1.95300 10 12
-4.44700 -6.67300 -1.90000 59 13
-4.96200 -7.44100 -1.90100 56 14
-5.63400 -8.44100 -1.91200 8 15
0.00000 0.00000 0.00000 38 16
-5.69400 -8.60700 -1.45000 39 17
0.00000 0.00000 0.00000 65 18
0.00000 0.00000 0.00000 85 19
0.00000 0.00000 0.00000 81 20
-5.73000 -8.63800 -0.48300 26 21
-5.75000 -8.66200 -0.24100 15 22
-5.77900 -8.70100 0.00000 12 23
-5.79900 -8.72500 0.24300 7 24
-5.60100 -8.42200 0.47100 18 25
-16.11500 -24.21900 2.03400 37 26
-16.22200 -24.36100 2.73000 6 27
-16.16900 -24.26300 3.40900 37 28
-16.13200 -24.19900 4.08700 40 29
-16.14900 -24.20500 4.78000 48 30
-16.26600 -24.36300 5.51900 8 31
-0.33000 -0.49300 -0.35100 33 0
-0.33800 -0.50500 -0.34100 31 1
-0.36300 -0.54200 -0.34700 19 2
-0.39900 -0.59500 -0.35900 14 3
-0.44300 -0.66000 -0.37600 6 4
-0.49500 -0.73700 -0.39500 15 5
-2.70200 -4.02200 -2.02400 2 6
-2.91600 -4.33600 -2.04000 2 7
-3.16800 -4.70900 -2.06500 2 8
-3.46000 -5.13900 -2.09300 4 9
-3.79300 -5.63000 -2.11800 23 10
-4.11400 -6.10400 -2.11000 2 11
-4.17400 -6.18800 -1.95400 12 12
-4.48500 -6.64800 -1.90000 52 13
-5.00600 -7.41400 -1.90100 56 14
-5.67700 -8.40100 -1.91000 8 15
0.00000 0.00000 0.00000 45 16
-5.74700 -8.57900 -1.45100 21 17
-5.78500 -8.62900 -1.21300 26 18
-5.79900 -8.64300 -0.97100 13 19
0.00000 0.00000 0.00000 8 20
-16.57100 -24.67000 -1.38600 38 21
-16.61800 -24.72100 -0.69100 58 22
-16.66800 -24.78600 0.00000 57 23
0.00000 0.00000 0.00000 3 24
-5.63200 -8.36300 0.47000 19 25
-16.19700 -24.04100 2.02600 37 26
-16.32200 -24.20800 2.72300 9 27
-16.25500 -24.09000 3.39800 37 28
-16.21300 -24.01900 4.07200 43 29
-16.23100 -24.02800 4.76300 52 30
-16.28100 -24.08300 5.47700 17 31
-0.33300 -0.49200 -0.35200 33 0
-0.34200 -0.50500 -0.34200 25 1
-0.36600 -0.54000 -0.34700 19 2
-0.40100 -0.59100 -0.35800 11 3
-0.44900 -0.66000 -0.37800 6 4
-0.51100 -0.75200 -0.40500 2 5
-2.72800 -4.00900 -2.02500 2 6
-2.94300 -4.32200 -2.04200 2 7
-3.20100 -4.69800 -2.06900 2 8
-3.48800 -5.11800 -2.09200 4 9
-3.82400 -5.60600 -2.11700 17 10
-4.13800 -6.06200 -2.10400 1 11
-4.20900 -6.16400 -1.95400 13 12
-4.51400 -6.60500 -1.89500 52 13
-5.05400 -7.39000 -1.90300 52 14
-5.71800 -8.35400 -1.90700 7 15
0.00000 0.00000 0.00000 16 16
-7.09900 -10.46200 -1.77700 21 17
-7.66200 -11.28800 -1.59300 8 18
-10.82400 -15.93300 -1.79700 2 19
0.00000 0.00000 0.00000 4 20
-16.86500 -24.79700 -1.39800 29 21
-16.93300 -24.87900 -0.69800 15 22
-17.03800 -25.01400 0.00000 7 23
-15.05600 -22.09600 0.62000 11 24
-5.66300 -8.30500 0.46800 21 25
-16.28100 -23.85900 2.01900 37 26
-16.33600 -23.92200 2.70200 13 27
-16.34000 -23.91700 3.38700 32 28
-16.30100 -23.84400 4.05900 43 29
-16.31500 -23.84500 4.74600 56 30
-16.43700 -24.01500 5.48200 8 31
-0.33200 -0.48300 -0.34700 33 0
-0.34200 -0.49800 -0.33900 25 1
-0.37100 -0.53900 -0.34800 19 2
-0.40500 -0.58900 -0.35800 11 3
-0.45200 -0.65600 -0.37700 6 4
-0.51900 -0.75300 -0.40700 1 5
-2.74800 -3.98900 -2.02300 2 6
-2.96600 -4.30200 -2.04000 2 7
-3.22600 -4.67500 -2.06700 2 8
-3.52000 -5.09800 -2.09300 4 9
-3.85400 -5.57900 -2.11600 12 10
-4.16300 -6.02100 -2.09900 1 11
-4.24100 -6.13200 -1.95200 17 12
-4.55100 -6.57500 -1.89400 52 13
-5.10000 -7.36300 -1.90400 44 14
-5.75600 -8.30400 -1.90300 7 15
-6.67700 -9.72300 -1.93800 3 16
-7.14900 -10.40200 -1.77300 35 17
-7.69800 -11.19600 -1.58600 12 18
-10.82600 -15.73400 -1.78100 3 19
0.00000 0.00000 0.00000 4 20
-17.20000 -24.97000 -1.41400 11 21
-17.27100 -25.05500 -0.70600 11 22
-17.35700 -25.16100 0.00000 10 23
-15.12700 -21.91900 0.61800 11 24
-5.69500 -8.24700 0.46700 23 25
-16.36900 -23.68500 2.01300 37 26
-16.44600 -23.77800 2.69700 9 27
-16.49900 -23.84600 3.39000 10 28
-16.38500 -23.66300 4.04500 43 29
-16.39800 -23.66500 4.73000 54 30
-16.52800 -23.84300 5.46500 8 31
-0.33700 -0.48600 -0.35000 33 0
-0.34600 -0.49800 -0.34000 31 1
-0.37400 -0.53700 -0.34800 19 2
-0.40700 -0.58500 -0.35800 9 3
-0.45600 -0.65500 -0.37800 6 4
-0.53400 -0.76700 -0.41600 0 5
-2.77600 -3.98100 -2.02700 2 6
-2.98800 -4.28200 -2.03900 2 7
-3.25300 -4.65700 -2.06700 2 8
-3.54700 -5.07700 -2.09200 4 9
-3.88800 -5.56000 -2.11700 8 10
-4.18900 -5.98700 -2.09500 1 11
-4.26300 -6.09100 -1.94600 24 12
-4.59300 -6.55700 -1.89700 55 13
-5.12100 -7.30600 -1.89600 40 14
-5.79400 -8.26000 -1.90100 7 15
-6.72800 -9.68100 -1.93700 6 16
-7.18700 -10.33400 -1.76900 24 17
-7.73200 -11.11200 -1.58000 12 18
-10.79300 -15.50000 -1.76200 3 19
-15.95600 -22.89800 -1.95100 2 20
-17.50800 -25.11600 -1.42700 11 21
-17.58700 -25.21100 -0.71300 12 22
-17.64100 -25.26900 0.00000 13 23
-15.22200 -21.79700 0.61700 3 24
-5.73100 -8.20000 0.46600 30 25
-16.44500 -23.51300 2.00600 37 26
-16.52300 -23.60600 2.68800 9 27
-16.61300 -23.72600 3.38700 10 28
-16.41500 -23.42600 4.02000 69 29
-16.47700 -23.49700 4.71400 58 30
-16.55000 -23.59200 5.42900 4 31
-0.33500 -0.47600 -0.34500 34 0
-0.35300 -0.50100 -0.34400 31 1
-0.38000 -0.53900 -0.35100 19 2
-0.40800 -0.58000 -0.35600 9 3
-0.46700 -0.66300 -0.38400 6 4
0.00000 0.00000 0.00000 3 5
-2.80000 -3.96600 -2.02800 2 6
-3.01300 -4.26400 -2.03900 1 7
-3.28300 -4.64300 -2.06900 2 8
-3.58000 -5.06000 -2.09400 6 9
-3.92900 -5.55000 -2.12200 5 10
-4.20900 -5.94200 -2.08800 2 11
-4.29000 -6.05300 -1.94200 32 12
-4.62900 -6.52900 -1.89600 52 13
-5.14000 -7.24400 -1.88800 56 14
-5.83200 -8.21200 -1.89700 8 15
-6.77900 -9.63100 -1.93500 9 16
-7.23700 -10.27800 -1.76600 24 17
-7.76800 -11.02400 -1.57400 11 18
-10.79200 -15.30400 -1.74700 4 19
-16.08200 -22.79800 -1.95100 2 20
-17.82800 -25.25500 -1.44100 12 21
-16.64300 -23.55800 -0.66900 23 22
0.00000 0.00000 0.00000 22 23
-15.32600 -21.67000 0.61600 7 24
-5.76300 -8.14300 0.46500 30 25
-16.52600 -23.34100 1.99900 36 26
-16.57900 -23.39900 2.67500 12 27
0.00000 0.00000 0.00000 33 28
-16.44700 -23.18700 3.99500 51 29
-16.56000 -23.32800 4.70000 54 30
-18.61000 -26.19700 6.05400 5 31
-0.34300 -0.48200 -0.35000 33 0
-0.35400 -0.49600 -0.34200 25 1
-0.37900 -0.53200 -0.34700 19 2
-0.41400 -0.58000 -0.35800 9 3
-0.48900 -0.68500 -0.39800 9 4
-2.62800 -3.67900 -2.01300 1 5
-2.81900 -3.94300 -2.02500 2 6
-3.04300 -4.25400 -2.04200 2 7
-3.30800 -4.62300 -2.06900 2 8
0.00000 0.00000 0.00000 66 9
-3.96200 -5.52900 -2.12200 5 10
0.00000 0.00000 0.00000 100 11
-4.31700 -6.01700 -1.93800 32 12
-4.66100 -6.49400 -1.89400 52 13
-5.17500 -7.20500 -1.88500 56 14
-5.87400 -8.17200 -1.89600 9 15
-6.82600 -9.58100 -1.93200 7 16
-7.29200 -10.23100 -1.76500 12 17
-7.79500 -10.92900 -1.56700 11 18
-10.78900 -15.11500 -1.73200 4 19
-16.11100 -22.56200 -1.93800 2 20
0.00000 0.00000 0.00000 36 21
0.00000 0.00000 0.00000 24 22
-16.51000 -23.07800 0.00000 57 23
-15.38900 -21.49500 0.61300 10 24
-5.79500 -8.08900 0.46400 29 25
-16.60600 -23.16900 1.99300 39 26
-16.72600 -23.32000 2.67700 9 27
-16.76200 -23.35300 3.36100 10 28
-16.52800 -23.01800 3.98200 48 29
-16.64300 -23.16100 4.68500 58 30
-16.75000 -23.29300 5.40500 4 31
-0.35000 -0.48500 -0.35500 32 0
-0.35600 -0.49300 -0.34100 25 1
-0.38100 -0.52800 -0.34600 19 2
-0.41700 -0.57800 -0.35800 9 3
-0.49400 -0.68400 -0.39900 17 4
-2.65100 -3.66500 -2.01400 1 5
-2.84000 -3.92600 -2.02400 2 6
-3.06300 -4.23100 -2.03900 2 7
-3.33200 -4.59800 -2.06700 2 8
-3.63400 -5.01300 -2.09200 33 9
-3.99600 -5.50900 -2.12300 5 10
0.00000 0.00000 0.00000 100 11
-4.34700 -5.98600 -1.93600 34 12
-4.69200 -6.45500 -1.89100 52 13
-5.18500 -7.12800 -1.87300 60 14
-5.92300 -8.13700 -1.89600 9 15
-6.87200 -9.52800 -1.93000 6 16
-7.35200 -10.18600 -1.76500 15 17
-7.83100 -10.84700 -1.56200 13 18
-10.75600 -14.88600 -1.71300 4 19
-16.19800 -22.40100 -1.93300 2 20
-16.56700 -22.90300 -1.31800 50 21
-16.58400 -22.90900 -0.65600 13 22
-16.57500 -22.88100 0.00000 42 23
-15.39200 -21.24000 0.60800 25 24
-5.82600 -8.03400 0.46200 29 25
-16.69000 -22.99800 1.98600 43 26
-16.81200 -23.14800 2.66900 3 27
-16.80800 -23.13500 3.34400 5 28
-16.61000 -22.84600 3.96900 48 29
-16.72200 -22.98300 4.66900 58 30
-19.16700 -26.33300 6.13600 6 31
-0.34200 -0.46900 -0.34400 34 0
-0.35700 -0.48900 -0.34000 25 1
-0.38600 -0.52800 -0.34800 19 2
-0.41900 -0.57400 -0.35700 9 3
-0.49900 -0.68200 -0.40000 27 4
-2.67400 -3.65300 -2.01500 2 5
-2.86300 -3.90700 -2.02300 2 6
-3.09100 -4.21500 -2.04100 2 7
-3.36300 -4.58500 -2.06900 3 8
-3.66200 -4.99000 -2.09100 31 9
-4.04100 -5.50200 -2.13000 5 10
0.00000 0.00000 0.00000 109 11
-4.36400 -5.93500 -1.92800 38 12
-4.72000 -6.41600 -1.88700 52 13
-5.23300 -7.10800 -1.87600 48 14
-5.96400 -8.09500 -1.89400 10 15
-6.91700 -9.47100 -1.92700 4 16
-7.39300 -10.11900 -1.76100 22 17
-7.86800 -10.76200 -1.55600 12 18
-10.73600 -14.67400 -1.69600 4 19
-16.22900 -22.17400 -1.92100 2 20
-16.62200 -22.69500 -1.31200 40 21
0.00000 0.00000 0.00000 1 22
-16.65700 -22.71700 0.00000 21 23
-15.47800 -21.09500 0.60700 14 24
-5.86300 -7.98500 0.46100 26 25
-16.77100 -22.83100 1.98000 39 26
-19.37200 -26.35300 3.05100 5 27
-16.89400 -22.96500 3.33300 5 28
-16.68500 -22.67300 3.95600 51 29
-16.79900 -22.81100 4.65400 56 30
-19.34600 -26.25100 6.14300 24 31
-0.34600 -0.46900 -0.34500 34 0
-0.36300 -0.49200 -0.34300 25 1
-0.39400 -0.53300 -0.35300 19 2
-0.42400 -0.57300 -0.35800 9 3
-0.50600 -0.68400 -0.40300 23 4
-2.69500 -3.63700 -2.01500 1 5
-2.88600 -3.89200 -2.02400 2 6
-3.11100 -4.19300 -2.03900 2 7
-3.38700 -4.56300 -2.06800 2 8
-3.68900 -4.96800 -2.09100 40 9
-4.08600 -5.49800 -2.13700 7 10
-4.27800 -5.75200 -2.05500 84 11
-4.38500 -5.89400 -1.92300 49 12
-4.76000 -6.39300 -1.88800 52 13
-5.24500 -7.04200 -1.86600 52 14
-5.99800 -8.04700 -1.89100 10 15
-6.96500 -9.42400 -1.92500 3 16
-7.43000 -10.04800 -1.75600 18 17
-7.90300 -10.68100 -1.55100 11 18
-10.73000 -14.49100 -1.68200 4 19
-16.32500 -22.03800 -1.91800 5 20
-16.70400 -22.53300 -1.30800 37 21
0.00000 0.00000 0.00000 1 22
-16.73100 -22.54500 0.00000 6 23
-15.52900 -20.91000 0.60400 14 24
-5.89700 -7.93800 0.46100 23 25
-16.85100 -22.66500 1.97400 39 26
0.00000 0.00000 0.00000 100 27
0.00000 0.00000 0.00000 24 28
-16.76100 -22.50300 3.94300 51 29
-16.87600 -22.64900 4.64000 56 30
-19.53500 -26.19900 6.15700 18 31
-0.35100 -0.46900 -0.34700 33 0
-0.36700 -0.49100 -0.34400 25 1
-0.39700 -0.53100 -0.35300 19 2
-0.43000 -0.57500 -0.36000 9 3
-0.49500 -0.66100 -0.39100 20 4
-2.71400 -3.61900 -2.01400 1 5
-2.90600 -3.87300 -2.02200 2 6
-3.13800 -4.18000 -2.04100 2 7
-3.41600 -4.54600 -2.06900 3 8
-3.72200 -4.95200 -2.09300 45 9
-4.11300 -5.46800 -2.13500 10 10
-4.30200 -5.71500 -2.05100 87 11
-4.42100 -5.87100 -1.92400 53 12
-4.76300 -6.32100 -1.87500 52 13
-5.27800 -6.99900 -1.86300 52 14
-6.03200 -7.99300 -1.88600 8 15
-6.99800 -9.35800 -1.91900 3 16
-7.47300 -9.98600 -1.75300 6 17
-7.94100 -10.60800 -1.54700 12 18
-10.68900 -14.26800 -1.66300 4 19
0.00000 0.00000 0.00000 93 20
-16.76900 -22.35900 -1.30300 36 21
0.00000 0.00000 0.00000 1 22
-16.81500 -22.38800 0.00000 2 23
-15.55900 -20.70800 0.60100 10 24
-5.93400 -7.89200 0.46000 21 25
-16.92400 -22.49200 1.96800 45 26
-16.95800 -22.52000 2.63000 39 27
0.00000 0.00000 0.00000 3 28
-16.83700 -22.33500 3.93000 51 29
-16.95500 -22.47600 4.62500 56 30
-17.03100 -22.56900 5.32700 16 31
-0.35500 -0.46900 -0.34800 33 0
-0.37200 -0.49200 -0.34600 24 1
-0.40300 -0.53200 -0.35400 18 2
-0.43100 -0.56900 -0.35800 9 3
-0.49600 -0.65300 -0.38800 12 4
-2.73400 -3.60100 -2.01300 2 5
-2.92400 -3.85000 -2.01900 2 6
-3.16500 -4.16400 -2.04200 2 7
-3.43800 -4.52200 -2.06700 2 8
-3.74800 -4.92600 -2.09100 43 9
-4.14600 -5.44500 -2.13500 13 10
-4.32200 -5.67300 -2.04500 87 11
-4.44300 -5.82800 -1.91800 53 12
-4.79200 -6.28400 -1.87200 55 13
-5.31700 -6.96700 -1.86200 65 14
-6.07000 -7.94800 -1.88400 9 15
-7.04500 -9.30500 -1.91700 6 16
-7.51000 -9.91600 -1.74800 11 17
-7.97500 -10.52300 -1.54100 13 18
-10.67500 -14.07400 -1.64800 5 19
0.00000 0.00000 0.00000 8 20
-16.85200 -22.19400 -1.29900 39 21
0.00000 0.00000 0.00000 1 22
0.00000 0.00000 0.00000 9 23
-15.66800 -20.59700 0.60000 7 24
-5.97000 -7.84300 0.45900 18 25
-17.00300 -22.32800 1.96200 45 26
-17.04100 -22.36200 2.62200 48 27
-17.06000 -22.37100 3.28900 20 28
-16.91400 -22.17000 3.91800 51 29
-17.03800 -22.31700 4.61200 56 30
-17.16500 -22.46700 5.32700 8 31
-0.36000 -0.47100 -0.35100 33 0
-0.37300 -0.48700 -0.34400 25 1
-0.40100 -0.52400 -0.35100 19 2
-0.44000 -0.57400 -0.36300 9 3
-0.48800 -0.63600 -0.37900 13 4
-2.74200 -3.57000 -2.00400 2 5
-2.94700 -3.83400 -2.02000 2 6
-3.19300 -4.15000 -2.04400 2 7
-3.46100 -4.49800 -2.06500 2 8
-3.77900 -4.90700 -2.09200 40 9
-4.17400 -5.41600 -2.13300 13 10
-4.33900 -5.62800 -2.03800 84 11
-4.48000 -5.80700 -1.92000 49 12
-4.83800 -6.26800 -1.87600 47 13
-5.33900 -6.91300 -1.85600 65 14
-6.10600 -7.90100 -1.88100 9 15
-7.09200 -9.25600 -1.91500 6 16
-7.54500 -9.84400 -1.74300 12 17
-8.00800 -10.44000 -1.53600 13 18
-10.66500 -13.89400 -1.63400 4 19
-16.21300 -21.11400 -1.86100 2 20
-16.92700 -22.02800 -1.29500 39 21
0.00000 0.00000 0.00000 1 22
0.00000 0.00000 0.00000 9 23
-15.74400 -20.45200 0.59900 10 24
-6.01400 -7.80700 0.45900 13 25
-17.08100 -22.16500 1.95600 45 26
-17.08600 -22.15500 2.61000 51 27
0.00000 0.00000 0.00000 24 28
-16.98800 -22.00400 3.90600 51 29
-17.10800 -22.14300 4.59700 56 30
-17.16800 -22.20500 5.28800 24 31
-0.36100 -0.46600 -0.34900 33 0
-0.37300 -0.48000 -0.34100 25 1
-0.40200 -0.51900 -0.34900 19 2
-0.44700 -0.57500 -0.36600 9 3
-0.49000 -0.63000 -0.37800 11 4
-2.77100 -3.56300 -2.01000 2 5
-2.96700 -3.81400 -2.01800 2 6
-3.21000 -4.12300 -2.04000 2 7
-3.49100 -4.48100 -2.06700 2 8
-3.80700 -4.88500 -2.09200 40 9
-4.20300 -5.38900 -2.13200 13 10
-4.36500 -5.59300 -2.03400 87 11
-4.50700 -5.77300 -1.91700 49 12
-4.89300 -6.26300 -1.88300 59 13
-5.41000 -6.91900 -1.86700 52 14
-6.13500 -7.84100 -1.87600 10 15
-7.14100 -9.20900 -1.91400 8 16
-7.58700 -9.77700 -1.73900 11 17
-8.04300 -10.36100 -1.53100 13 18
-10.64700 -13.70600 -1.61900 4 19
-16.21400 -20.85800 -1.84700 2 20
-17.00100 -21.86300 -1.29100 36 21
-17.01500 -21.86500 -0.64300 6 22
-17.06100 -21.90800 0.00000 2 23
-15.77500 -20.24900 0.59500 13 24
-6.05400 -7.76600 0.45900 12 25
-17.16300 -22.00000 1.95100 35 26
-17.14400 -21.95900 2.59800 45 27
-17.21700 -22.04400 3.27000 40 28
-17.06600 -21.83500 3.89400 51 29
-17.19300 -21.98200 4.58400 58 30
0.00000 0.00000 0.00000 26 31
-0.37000 -0.47200 -0.35600 32 0
-0.38100 -0.48500 -0.34600 24 1
-0.40900 -0.52000 -0.35200 19 2
-0.44800 -0.57000 -0.36400 9 3
-0.50000 -0.63600 -0.38300 4 4
-2.79700 -3.55500 -2.01400 2 5
-2.99200 -3.80000 -2.02000 2 6
-3.23700 -4.10900 -2.04200 1 7
-3.51600 -4.46000 -2.06700 2 8
-3.83700 -4.86600 -2.09400 42 9
-4.23400 -5.36500 -2.13200 13 10
-4.38800 -5.55600 -2.03000 87 11
-4.53800 -5.74400 -1.91600 63 12
-4.91500 -6.21700 -1.87800 55 13
-5.43400 -6.87100 -1.86200 52 14
-6.17100 -7.79800 -1.87300 9 15
-7.18500 -9.15400 -1.91200 8 16
-7.62200 -9.70700 -1.73400 13 17
-8.07200 -10.27300 -1.52500 12 18
-10.65100 -13.54400 -1.60700 5 19
-16.25500 -20.66400 -1.83800 4 20
-17.08900 -21.70800 -1.28800 45 21
-17.09700 -21.71000 -0.64100 12 22
-17.12700 -21.73400 0.00000 2 23
-15.79300 -20.02600 0.59200 13 24
-6.08700 -7.71700 0.45800 12 25
-17.23800 -21.83500 1.94500 35 26
-17.21200 -21.79400 2.59000 42 27
-17.29800 -21.88700 3.26200 40 28
-17.14300 -21.67600 3.88300 51 29
-17.26000 -21.81600 4.57000 58 30
-17.28200 -21.82800 5.24500 56 31
-0.36500 -0.46000 -0.34800 33 0
-0.38600 -0.48600 -0.34800 24 1
-0.41400 -0.52100 -0.35300 19 2
-0.45000 -0.56600 -0.36300 9 3
-0.50100 -0.63100 -0.38100 3 4
-2.81500 -3.53600 -2.01200 2 5
-3.01200 -3.78100 -2.01900 2 6
-3.25500 -4.08500 -2.03900 2 7
-3.54800 -4.44900 -2.07100 2 8
-3.86000 -4.83900 -2.09100 34 9
-4.26500 -5.34300 -2.13300 13 10
-4.40700 -5.51700 -2.02400 87 11
-4.54700 -5.69000 -1.90700 53 12
-4.95000 -6.19000 -1.87800 44 13
-5.46000 -6.82500 -1.85700 56 14
-6.20100 -7.74600 -1.86900 9 15
-7.22500 -9.10000 -1.90900 6 16
-7.66500 -9.65000 -1.73200 8 17
-8.10200 -10.19300 -1.52000 13 18
-10.63600 -13.37100 -1.59400 5 19
-16.28200 -20.46200 -1.82800 4 20
-17.19600 -21.59500 -1.28700 18 21
-17.26200 -21.67100 -0.64300 9 22
-17.22300 -21.60600 0.00000 4 23
-15.80900 -19.81700 0.58800 13 24
-6.11700 -7.66500 0.45700 11 25
-17.30600 -21.67100 1.93900 31 26
-17.28100 -21.63200 2.58300 46 27
-17.36300 -21.71900 3.25100 48 28
-17.21900 -21.52400 3.87300 54 29
-17.33200 -21.65800 4.55700 58 30
-17.30800 -21.61200 5.21600 42 31
-0.36800 -0.45800 -0.34800 33 0
-0.38400 -0.47800 -0.34400 25 1
-0.41700 -0.51800 -0.35300 19 2
-0.45600 -0.56600 -0.36500 9 3
-0.51200 -0.63600 -0.38600 3 4
-2.83300 -3.51600 -2.01000 2 5
-3.03700 -3.76600 -2.02100 2 6
-3.28300 -4.06900 -2.04200 2 7
-3.57300 -4.42600 -2.07000 2 8
-3.88700 -4.81200 -2.09000 37 9
-4.29400 -5.31200 -2.13100 16 10
-4.43100 -5.48000 -2.02100 87 11
-4.58500 -5.66700 -1.90800 53 12
-4.99400 -6.17000 -1.88000 47 13
-5.51600 -6.81000 -1.86200 40 14
-6.24700 -7.70700 -1.86900 9 15
-7.26400 -9.03800 -1.90500 4 16
-7.69800 -9.57400 -1.72600 13 17
-8.12600 -10.10000 -1.51300 12 18
-10.67100 -13.25300 -1.58700 5 19
-16.32500 -20.26900 -1.82000 4 20
-17.33800 -21.51000 -1.28800 39 21
-17.46300 -21.65100 -0.64500 9 22
-17.29900 -21.43900 0.00000 4 23
-15.90000 -19.69100 0.58700 13 24
-6.15000 -7.61100 0.45600 10 25
-17.38700 -21.50900 1.93300 30 26
-17.35900 -21.46000 2.57500 48 27
-17.45200 -21.56000 3.24300 43 28
-17.29400 -21.35700 3.86200 54 29
-17.41700 -21.49300 4.54500 65 30
-17.38600 -21.44000 5.20000 42 31
-0.37400 -0.46000 -0.35100 33 0
-0.39100 -0.48100 -0.34800 24 1
-0.41500 -0.51000 -0.35000 19 2
-0.47000 -0.57700 -0.37400 8 3
-0.52300 -0.64100 -0.39100 1 4
-2.85700 -3.50400 -2.01300 2 5
-3.05600 -3.74600 -2.01900 2 6
-3.30800 -4.05200 -2.04200 1 7
-3.59900 -4.40700 -2.07100 3 8
-3.91700 -4.79200 -2.09100 36 9
-4.32300 -5.28600 -2.13100 21 10
-4.45200 -5.44100 -2.01600 87 11
-4.60800 -5.62800 -1.90400 49 12
-5.02100 -6.13000 -1.87700 52 13
-5.54800 -6.76900 -1.86000 52 14
-6.28000 -7.65700 -1.86600 10 15
-7.30400 -8.98100 -1.90200 5 16
-7.73800 -9.51100 -1.72300 19 17
-8.15400 -10.01600 -1.50800 13 18
-10.67800 -13.10700 -1.57700 4 19
-16.35600 -20.06900 -1.81000 4 20
-17.40800 -21.34500 -1.28400 51 21
-17.52800 -21.47700 -0.64300 12 22
-17.35500 -21.25600 0.00000 8 23
-15.98500 -19.56500 0.58600 9 24
-6.18200 -7.56100 0.45500 9 25
-17.46100 -21.34900 1.92800 30 26
-17.45300 -21.32400 2.57000 48 27
-17.52500 -21.39600 3.23400 48 28
-17.36900 -21.19900 3.85100 52 29
-17.49100 -21.33200 4.53200 61 30
-17.46300 -21.28300 5.18700 54 31
-0.37900 -0.46000 -0.35400 32 0
-0.39100 -0.47500 -0.34500 24 1
-0.42400 -0.51500 -0.35400 18 2
-0.47500 -0.57600 -0.37500 8 3
-2.68500 -3.25600 -1.99700 0 4
-2.86800 -3.47600 -2.00600 2 5
-3.07500 -3.72500 -2.01800 2 6
-3.32700 -4.02700 -2.03900 2 7
-3.62100 -4.38000 -2.06800 2 8
-3.94700 -4.77300 -2.09200 34 9
-4.35500 -5.26200 -2.13100 22 10
-4.47300 -5.40100 -2.01100 87 11
-4.64300 -5.60500 -1.90500 49 12
-5.03500 -6.07300 -1.86900 52 13
-5.50200 -6.63200 -1.83100 81 14
-6.32300 -7.61600 -1.86500 10 15
-7.35200 -8.93400 -1.90100 4 16
-7.77700 -9.44500 -1.71900 14 17
-8.18000 -9.93100 -1.50200 15 18
-10.67400 -12.94800 -1.56500 4 19
-16.35700 -19.82900 -1.79700 6 20
-17.49000 -21.19500 -1.28100 28 21
0.00000 0.00000 0.00000 22 22
0.00000 0.00000 0.00000 32 23
-16.06000 -19.42800 0.58500 13 24
-6.21000 -7.50700 0.45400 11 25
-17.54400 -21.19200 1.92300 23 26
-17.53700 -21.16900 2.56400 54 27
-17.69500 -21.35100 3.24200 9 28
-17.44800 -21.03900 3.84100 52 29
-17.56500 -21.16500 4.51800 59 30
-17.55600 -21.14600 5.17800 50 31
-0.37900 -0.45600 -0.35100 33 0
-0.39700 -0.47600 -0.34800 24 1
-0.42700 -0.51200 -0.35400 18 2
-0.48000 -0.57600 -0.37600 14 3
-2.70100 -3.23800 -1.99600 2 4
-2.89300 -3.46500 -2.01000 1 5
-3.09300 -3.70100 -2.01500 3 6
-3.35100 -4.00900 -2.04000 1 7
-3.64800 -4.36200 -2.06900 2 8
-3.97100 -4.74600 -2.09100 34 9
-4.38300 -5.23400 -2.13000 22 10
-4.49300 -5.36200 -2.00600 87 11
-4.66700 -5.56700 -1.90100 53 12
-5.05100 -6.02200 -1.86200 30 13
-5.57900 -6.64900 -1.84500 37 14
-6.36300 -7.57800 -1.86400 8 15
-7.40100 -8.88600 -1.90000 3 16
-7.81100 -9.37600 -1.71500 19 17
-8.21200 -9.85000 -1.49700 13 18
-10.69400 -12.81700 -1.55700 5 19
-16.40200 -19.65100 -1.79000 6 20
-16.56700 -19.83500 -1.20500 12 21
0.00000 0.00000 0.00000 1 22
-17.52400 -20.95800 0.00000 4 23
0.00000 0.00000 0.00000 36 24
-6.24000 -7.45600 0.45300 11 25
-17.61900 -21.03400 1.91800 16 26
-17.61100 -21.01700 2.55800 51 27
-17.77400 -21.19700 3.23400 9 28
-17.51900 -20.87900 3.83000 52 29
-17.63800 -21.01200 4.50700 59 30
-17.63700 -20.99600 5.16600 58 31
-0.38200 -0.45400 -0.35100 33 0
-0.39800 -0.47300 -0.34700 24 1
-0.43000 -0.51000 -0.35400 18 2
-0.48200 -0.57200 -0.37600 19 3
-2.72400 -3.22600 -1.99800 1 4
-2.91700 -3.45400 -2.01300 2 5
-3.11400 -3.68600 -2.01500 2 6
-3.37500 -3.99100 -2.04100 2 7
-3.67200 -4.34100 -2.06900 2 8
-3.99900 -4.72400 -2.09100 34 9
-4.41100 -5.20700 -2.12900 22 10
-4.51600 -5.32900 -2.00300 87 11
-4.70000 -5.54200 -1.90200 53 12
-5.09500 -6.00500 -1.86600 52 13
-5.61200 -6.61100 -1.84300 46 14
-6.40900 -7.54400 -1.86500 6 15
-7.44100 -8.83400 -1.89700 3 16
-7.85000 -9.31500 -1.71200 15 17
-8.23500 -9.76600 -1.49100 14 18
-10.70800 -12.68900 -1.54900 4 19
-16.43200 -19.46500 -1.78100 4 20
-17.63500 -20.87600 -1.27400 17 21
-17.79000 -21.04400 -0.63900 12 22
-17.59300 -20.80400 0.00000 4 23
-16.25900 -19.21200 0.58400 45 24
-6.27400 -7.40900 0.45200 11 25
-17.68500 -20.87600 1.91300 13 26
-17.68200 -20.85800 2.55100 51 27
-17.86900 -21.06300 3.23000 9 28
-17.58800 -20.72500 3.82000 52 29
-17.71200 -20.85600 4.49500 59 30
-17.71000 -20.83900 5.15200 54 31
-0.38800 -0.45500 -0.35500 32 0
-0.39900 -0.46800 -0.34500 24 1
-0.42800 -0.50200 -0.35100 19 2
-0.48800 -0.57200 -0.37700 16 3
-2.73600 -3.20400 -1.99400 3 4
-2.93000 -3.42900 -2.00800 1 5
-3.14200 -3.67500 -2.01900 2 6
-3.39900 -3.97300 -2.04200 2 7
-3.69800 -4.31900 -2.06900 2 8
-4.03100 -4.70700 -2.09400 31 9
-4.44400 -5.18500 -2.13100 23 10
-4.53500 -5.28800 -1.99700 84 11
-4.71700 -5.49700 -1.89600 56 12
-5.07200 -5.90700 -1.84400 52 13
-5.64600 -6.57100 -1.84100 48 14
-6.43500 -7.48400 -1.85900 10 15
-7.47000 -8.76500 -1.89200 3 16
-7.89200 -9.25300 -1.70900 4 17
-8.25900 -9.68000 -1.48500 15 18
-10.71300 -12.54800 -1.53900 4 19
-16.46400 -19.27000 -1.77200 4 20
-17.70600 -20.71600 -1.27100 11 21
-17.85900 -20.88000 -0.63800 12 22
-17.66000 -20.63400 0.00000 4 23
-16.32900 -19.07100 0.58200 55 24
-6.30000 -7.35300 0.45100 12 25
-17.76000 -20.71300 1.90700 13 26
-17.75900 -20.69800 2.54400 48 27
0.00000 0.00000 0.00000 24 28
-17.66800 -20.57100 3.81000 52 29
-17.79200 -20.70000 4.48400 59 30
-17.78400 -20.68300 5.13900 60 31
-0.39700 -0.46100 -0.36100 31 0
-0.40400 -0.46800 -0.34700 24 1
-0.44100 -0.51100 -0.35900 18 2
-0.47900 -0.55400 -0.36700 22 3
-2.75600 -3.18900 -1.99500 2 4
-2.95200 -3.41500 -2.01000 2 5
-3.16200 -3.65400 -2.01800 2 6
-3.42300 -3.95300 -2.04200 2 7
-3.71900 -4.29400 -2.06700 2 8
-4.05200 -4.67400 -2.09000 34 9
-4.46900 -5.15300 -2.12800 23 10
-4.56200 -5.25700 -1.99600 87 11
-4.75200 -5.47200 -1.89700 53 12
-5.15300 -5.93200 -1.86200 44 13
-5.68000 -6.53400 -1.84000 53 14
-6.46700 -7.43500 -1.85600 24 15
-7.51500 -8.71200 -1.89000 3 16
-7.93200 -9.19300 -1.70600 5 17
-8.29200 -9.60300 -1.48100 16 18
-10.71400 -12.39900 -1.52800 4 19
-16.48500 -19.07100 -1.76200 4 20
-17.78400 -20.55900 -1.26700 8 21
-17.94300 -20.72900 -0.63600 12 22
-17.73800 -20.48500 0.00000 4 23
-16.40500 -18.93200 0.58100 58 24
-6.32900 -7.29900 0.45000 11 25
-7.70900 -8.88700 0.82200 6 26
-7.73800 -8.91400 1.10100 8 27
-17.86000 -20.56000 3.18400 57 28
-17.74600 -20.42200 3.80200 46 29
-17.86000 -20.53900 4.47100 59 30
-17.85700 -20.52100 5.12500 60 31
-0.39300 -0.45100 -0.35500 32 0
-0.40700 -0.46600 -0.34700 24 1
-0.43600 -0.50000 -0.35300 19 2
-0.49000 -0.56100 -0.37400 17 3
-2.77300 -3.17100 -1.99400 2 4
-2.97300 -3.39900 -2.01000 2 5
-3.17700 -3.62900 -2.01500 2 6
-3.44500 -3.93300 -2.04200 2 7
-3.74400 -4.27200 -2.06700 2 8
-4.07700 -4.64900 -2.08900 34 9
-4.49800 -5.12500 -2.12800 23 10
-4.58100 -5.21800 -1.99100 87 11
-4.77300 -5.43300 -1.89300 53 12
-5.16300 -5.87500 -1.85300 52 13
-5.74500 -6.53200 -1.84900 56 14
-6.50500 -7.39100 -1.85500 20 15
-7.53300 -8.63300 -1.88200 3 16
-7.95600 -9.11400 -1.70000 3 17
-8.31800 -9.52200 -1.47600 16 18
-10.71900 -12.26200 -1.51900 4 19
-16.33000 -18.67400 -1.73400 2 20
-8.07300 -9.22500 -0.57100 1 21
-18.04800 -20.60900 -0.63600 3 22
-17.77000 -20.28400 0.00000 8 23
-16.47500 -18.79300 0.58000 56 24
-6.36200 -7.25200 0.44900 12 25
-7.75200 -8.83300 0.82100 3 26
-7.74300 -8.81700 1.09400 14 27
-17.93100 -20.40300 3.17600 32 28
-17.82700 -20.27800 3.79400 27 29
-17.93000 -20.38100 4.45900 59 30
-17.92700 -20.36300 5.11100 60 31
-0.39400 -0.44700 -0.35400 32 0
-0.40300 -0.45700 -0.34200 25 1
-0.43800 -0.49600 -0.35200 19 2
-0.48500 -0.54900 -0.36700 18 3
-2.78400 -3.14700 -1.98900 3 4
-2.99700 -3.38600 -2.01300 2 5
-3.20000 -3.61400 -2.01600 2 6
-3.46200 -3.90600 -2.03800 2 7
-3.77200 -4.25500 -2.06900 2 8
-4.10400 -4.62600 -2.08900 37 9
-4.53000 -5.10200 -2.12900 25 10
-4.59700 -5.17600 -1.98500 84 11
-4.80700 -5.40800 -1.89400 56 12
-5.16200 -5.80500 -1.84000 36 13
-5.77300 -6.48900 -1.84600 48 14
0.00000 0.00000 0.00000 6 15
-7.57100 -8.57600 -1.87900 3 16
-7.97700 -9.03300 -1.69300 5 17
-8.33900 -9.43500 -1.47000 15 18
-10.74200 -12.14600 -1.51200 4 19
-16.23200 -18.34800 -1.71300 4 20
-8.10800 -9.15800 -0.57000 1 21
-18.09000 -20.41900 -0.63300 12 22
-17.81900 -20.10500 0.00000 26 23
-16.54500 -18.65500 0.57800 53 24
-6.38900 -7.19900 0.44800 12 25
0.00000 0.00000 0.00000 100 26
0.00000 0.00000 0.00000 83 27
-17.99800 -20.24300 3.16700 32 28
-7.86700 -8.84500 1.66300 7 29
-18.00800 -20.23300 4.45000 60 30
-17.99800 -20.20800 5.09800 60 31
-0.39500 -0.44200 -0.35100 33 0
-0.41200 -0.46100 -0.34700 24 1
-0.44700 -0.50000 -0.35600 18 2
-0.48200 -0.53900 -0.36300 18 3
-2.80700 -3.13700 -1.99200 2 4
-3.02400 -3.37600 -2.01800 2 5
-3.22100 -3.59500 -2.01600 2 6
-3.49200 -3.89400 -2.04200 2 7
-3.80600 -4.24200 -2.07400 2 8
-4.13000 -4.60200 -2.08900 34 9
-4.55800 -5.07500 -2.12800 16 10
-4.62100 -5.14100 -1.98200 87 11
-4.82500 -5.36600 -1.88900 60 12
-5.18400 -5.76200 -1.83600 36 13
-5.82200 -6.46600 -1.84900 53 14
-6.52900 -7.24600 -1.83700 7 15
-7.61100 -8.52200 -1.87700 3 16
0.00000 0.00000 0.00000 100 17
-8.35700 -9.34700 -1.46400 14 18
-10.82300 -12.09600 -1.51400 1 19
0.00000 0.00000 0.00000 100 20
0.00000 0.00000 0.00000 30 21
-18.15800 -20.25900 -0.63100 6 22
0.00000 0.00000 0.00000 33 23
-16.61100 -18.51300 0.57700 50 24
-6.41300 -7.14200 0.44700 12 25
0.00000 0.00000 0.00000 100 26
-7.83000 -8.70800 1.09200 42 27
0.00000 0.00000 0.00000 81 28
0.00000 0.00000 0.00000 55 29
-18.07700 -20.07000 4.43700 57 30
-18.07200 -20.05700 5.08600 60 31
-0.40100 -0.44400 -0.35500 32 0
-0.41000 -0.45300 -0.34300 25 1
-0.44500 -0.49200 -0.35300 19 2
-0.48600 -0.53700 -0.36400 9 3
-2.82300 -3.11800 -1.99100 2 4
-3.03300 -3.34800 -2.01100 1 5
-3.24700 -3.58100 -2.01900 2 6
-3.51300 -3.87300 -2.04200 2 7
-3.81800 -4.20600 -2.06700 3 8
-4.15700 -4.57800 -2.08900 34 9
-4.59200 -5.05400 -2.13100 13 10
-4.63800 -5.10000 -1.97600 84 11
-4.84300 -5.32400 -1.88400 49 12
-5.17900 -5.69000 -1.82300 45 13
-5.85500 -6.43100 -1.84800 48 14
-6.56100 -7.20100 -1.83500 7 15
-7.64200 -8.45500 -1.87200 2 16
-8.02300 -8.87200 -1.68100 17 17
-8.39600 -9.27900 -1.46100 5 18
-10.78500 -11.91000 -1.49900 6 19
-16.23200 -17.92000 -1.69000 4 20
-18.08100 -19.94700 -1.25500 46 21
-18.21300 -20.08600 -0.62900 3 22
-17.95800 -19.79100 0.00000 46 23
-16.68400 -18.37400 0.57600 53 24
-6.44900 -7.09900 0.44700 13 25
0.00000 0.00000 0.00000 6 26
-7.86500 -8.64900 1.09000 49 27
-8.45300 -9.29000 1.46800 23 28
-7.94300 -8.72300 1.65800 31 29
-18.15900 -19.93500 4.43000 23 30
-18.14500 -19.90600 5.07400 63 31
-0.40800 -0.44600 -0.35900 31 0
-0.42200 -0.46100 -0.35100 24 1
-0.45200 -0.49500 -0.35600 18 2
-0.50400 -0.55100 -0.37500 6 3
-2.84300 -3.10500 -1.99200 2 4
-3.05600 -3.33500 -2.01400 1 5
-3.27200 -3.56900 -2.02200 2 6
-3.53500 -3.85300 -2.04200 2 7
-3.84700 -4.19000 -2.07000 2 8
-4.18100 -4.55300 -2.08900 33 9
-4.62300 -5.03100 -2.13200 23 10
-4.65700 -5.06400 -1.97300 84 11
-4.88400 -5.30900 -1.88800 53 12
-5.27600 -5.73100 -1.84500 47 13
-5.86500 -6.36900 -1.84000 43 14
-6.63500 -7.20000 -1.84400 3 15
-7.66900 -8.39000 -1.86700 2 16
-8.05700 -8.81200 -1.67800 18 17
-8.43100 -9.21300 -1.45800 5 18
-10.80000 -11.79400 -1.49200 5 19
-16.21000 -17.69700 -1.67800 5 20
-18.15000 -19.80000 -1.25200 52 21
0.00000 0.00000 0.00000 1 22
-18.03800 -19.65700 0.00000 41 23
-16.73800 -18.22800 0.57400 53 24
-6.47300 -7.04700 0.44600 12 25
0.00000 0.00000 0.00000 87 26
0.00000 0.00000 0.00000 20 27
-7.87900 -8.56300 1.36000 13 28
-7.96500 -8.64900 1.65200 35 29
0.00000 0.00000 0.00000 132 30
-18.21200 -19.75700 5.06200 63 31
-0.40600 -0.43900 -0.35500 32 0
-0.42500 -0.45900 -0.35100 24 1
-0.45800 -0.49400 -0.35800 18 2
-0.50500 -0.54500 -0.37300 2 3
-2.86000 -3.08600 -1.99100 3 4
-3.07500 -3.31700 -2.01400 1 5
-3.29200 -3.54800 -2.02100 2 6
-3.55300 -3.82600 -2.03900 2 7
-3.87600 -4.17300 -2.07300 3 8
-4.20800 -4.52600 -2.08800 36 9
-4.64600 -4.99400 -2.12800 30 10
-4.67900 -5.02800 -1.96900 84 11
-4.90400 -5.26700 -1.88400 53 12
-5.31300 -5.70400 -1.84700 44 13
-5.89300 -6.32200 -1.83700 51 14
-6.68400 -7.16500 -1.84600 3 15
-7.70500 -8.33000 -1.86400 2 16
-8.09100 -8.74300 -1.67400 28 17
-8.46200 -9.13800 -1.45400 2 18
-10.83300 -11.69000 -1.48700 6 19
-16.20500 -17.48200 -1.66600 5 20
-18.21700 -19.63800 -1.24900 35 21
-18.26400 -19.67500 -0.62300 2 22
-18.19000 -19.58800 0.00000 24 23
-16.82800 -18.10900 0.57300 59 24
-6.50500 -6.99600 0.44500 12 25
0.00000 0.00000 0.00000 100 26
0.00000 0.00000 0.00000 100 27
0.00000 0.00000 0.00000 109 28
-8.06600 -8.65600 1.66200 50 29
-8.62400 -9.24900 2.07700 23 30
-18.19200 -19.49500 5.02300 21 31
-0.41100 -0.43900 -0.35700 32 0
-0.43000 -0.45900 -0.35300 23 1
-0.45900 -0.49100 -0.35700 18 2
-0.50400 -0.53800 -0.37000 2 3
-2.87300 -3.06400 -1.98800 3 4
-3.08700 -3.29100 -2.00900 1 5
-3.31500 -3.53100 -2.02300 2 6
-3.57700 -3.80800 -2.04000 2 7
-3.89800 -4.14800 -2.07100 2 8
-4.23400 -4.50200 -2.08800 37 9
-4.67400 -4.96700 -2.12800 42 10
-4.70400 -4.99700 -1.96800 9 11
-4.93200 -5.23600 -1.88300 60 12
-5.33600 -5.66200 -1.84300 31 13
-5.89600 -6.25200 -1.82600 51 14
-6.71400 -7.11500 -1.84300 2 15
-7.74100 -8.27200 -1.86100 3 16
-8.13500 -8.69100 -1.67300 33 17
-8.50700 -9.08100 -1.45300 3 18
-10.86300 -11.58900 -1.48200 7 19
-16.14300 -17.21500 -1.65000 3 20
-18.28600 -19.48600 -1.24600 49 21
-18.30600 -19.49400 -0.62000 11 22
-18.41000 -19.59800 0.00000 20 23
-16.90000 -17.97800 0.57200 40 24
-6.53400 -6.94600 0.44400 12 25
0.00000 0.00000 0.00000 6 26
-18.23700 -19.36600 2.48100 34 27
-8.07300 -8.56700 1.37600 31 28
-8.13400 -8.62900 1.66600 50 29
0.00000 0.00000 0.00000 19 30
-18.24700 -19.33000 5.00800 47 31
-0.40500 -0.42800 -0.34900 33 0
-0.42800 -0.45100 -0.34900 24 1
-0.46300 -0.48900 -0.35800 18 2
0.00000 0.00000 0.00000 4 3
-2.89500 -3.05100 -1.99100 3 4
-3.11700 -3.28500 -2.01600 1 5
-3.33700 -3.51400 -2.02400 2 6
-3.59700 -3.78500 -2.03900 3 7
-3.91600 -4.12000 -2.06900 2 8
-4.26300 -4.48200 -2.09000 45 9
-4.70700 -4.94400 -2.13000 21 10
-4.72300 -4.96000 -1.96400 3 11
-4.94800 -5.19200 -1.87700 53 12
-5.34400 -5.60600 -1.83500 28 13
-5.90600 -6.19100 -1.81800 56 14
-6.74400 -7.06500 -1.84000 2 15
-7.75900 -8.19600 -1.85400 3 16
-8.16600 -8.62400 -1.66900 37 17
-8.56000 -9.03300 -1.45300 4 18
-10.88300 -11.47700 -1.47500 5 19
-16.07900 -16.94900 -1.63300 5 20
-18.36100 -19.34100 -1.24300 49 21
-18.36600 -19.33300 -0.61900 20 22
-18.51500 -19.48300 0.00000 18 23
-18.28900 -19.23200 0.61600 18 24
-6.56100 -6.89400 0.44300 12 25
-18.18900 -19.10700 1.84400 6 26
-9.28000 -9.74200 1.25500 18 27
-8.16000 -8.56000 1.38300 36 28
-8.19500 -8.59400 1.66800 48 29
0.00000 0.00000 0.00000 169 30
-18.32900 -19.19400 5.00000 39 31
-0.40900 -0.42700 -0.35000 33 0
-0.42800 -0.44600 -0.34700 24 1
-0.47000 -0.49000 -0.36100 13 2
0.00000 0.00000 0.00000 4 3
-2.90500 -3.02700 -1.98600 2 4
-3.13000 -3.26000 -2.01200 1 5
-3.35200 -3.48900 -2.02100 2 6
-3.62400 -3.76900 -2.04200 2 7
-3.93900 -4.09600 -2.06800 3 8
-4.29000 -4.45800 -2.09100 48 9
-4.72600 -4.90800 -2.12600 45 10
-4.74900 -4.93000 -1.96300 3 11
-4.99700 -5.18400 -1.88500 56 12
-5.38300 -5.58200 -1.83700 40 13
-5.95000 -6.16500 -1.82100 53 14
-6.77700 -7.01800 -1.83800 1 15
-7.79400 -8.13800 -1.85100 3 16
-8.20200 -8.56200 -1.66600 37 17
-8.61600 -8.98800 -1.45300 4 18
-10.89600 -11.35800 -1.46800 6 19
-16.05800 -16.73400 -1.62100 5 20
-18.33700 -19.09500 -1.23400 44 21
0.00000 0.00000 0.00000 41 22
-18.35400 -19.09200 0.00000 58 23
-18.36100 -19.08600 0.61400 36 24
-6.58900 -6.84500 0.44300 12 25
-18.24200 -18.94400 1.83800 9 26
-9.34700 -9.70000 1.25600 28 27
-8.17900 -8.48200 1.37700 45 28
-7.63700 -7.91600 1.54500 4 29
-7.71100 -7.98800 1.82400 18 30
-7.77500 -8.04800 2.10800 6 31
-0.42100 -0.43400 -0.35900 31 0
-0.44000 -0.45400 -0.35500 23 1
-0.48400 -0.49900 -0.36900 16 2
-2.76700 -2.85300 -1.99500 0 3
-2.93100 -3.01900 -1.99100 2 4
-3.15400 -3.24700 -2.01500 1 5
-3.37300 -3.47100 -2.02100 2 6
-3.64900 -3.75300 -2.04400 2 7
-3.96400 -4.07400 -2.06900 3 8
-4.31000 -4.42700 -2.08700 39 9
-4.74200 -4.86800 -2.12000 53 10
-4.77200 -4.89500 -1.96000 3 11
-4.97900 -5.10500 -1.86600 53 12
-5.42800 -5.56200 -1.84100 31 13
-5.96300 -6.10600 -1.81400 58 14
-6.80200 -6.96000 -1.83300 1 15
-7.83300 -8.08600 -1.84900 3 16
-8.24200 -8.50200 -1.66400 30 17
-8.65100 -8.92100 -1.45100 3 18
-10.92300 -11.25600 -1.46300 7 19
-15.99500 -16.47100 -1.60500 5 20
-18.40800 -18.94900 -1.23200 49 21
-18.41900 -18.94700 -0.61300 49 22
-18.43300 -18.94900 0.00000 16 23
-8.37500 -8.60600 0.27800 4 24
-6.61600 -6.79400 0.44200 12 25
0.00000 0.00000 0.00000 138 26
-18.54000 -19.01200 2.47700 23 27
-7.76900 -7.96400 1.30100 42 28
0.00000 0.00000 0.00000 103 29
-7.68400 -7.86600 1.80600 24 30
0.00000 0.00000 0.00000 88 31
-0.42000 -0.42800 -0.35600 32 0
-0.43200 -0.44000 -0.34600 24 1
-0.48800 -0.49800 -0.37000 20 2
-2.76700 -2.81800 -1.98300 0 3
-2.94700 -3.00000 -1.99100 2 4
-3.17200 -3.22700 -2.01400 1 5
-3.40100 -3.45900 -2.02600 2 6
-3.67500 -3.73500 -2.04600 2 7
-3.99200 -4.05500 -2.07100 2 8
-4.34600 -4.41200 -2.09200 45 9
-4.76700 -4.83600 -2.11900 38 10
-4.78900 -4.85600 -1.95500 3 11
-5.02600 -5.09400 -1.87300 46 12
-5.41500 -5.48500 -1.82600 40 13
-5.98800 -6.06200 -1.81100 51 14
-6.83600 -6.91600 -1.83200 1 15
-7.86300 -8.02100 -1.84500 3 16
-8.27300 -8.43600 -1.66000 37 17
-8.56800 -8.73100 -1.42800 4 18
-10.98400 -11.18600 -1.46200 1 19
0.00000 0.00000 0.00000 93 20
0.00000 0.00000 0.00000 108 21
-8.41400 -8.55300 -0.27800 8 22
-18.57700 -18.87800 0.00000 31 23
-18.59400 -18.88200 0.61500 43 24
-6.64500 -6.74300 0.44100 12 25
-7.89200 -8.00600 0.78600 12 26
-7.84400 -7.95100 1.04200 5 27
-7.81000 -7.91200 1.30000 59 28
-7.73700 -7.83500 1.54700 35 29
-7.74700 -7.84000 1.81000 21 30
-7.91500 -8.00400 2.12100 7 31
-0.42100 -0.42500 -0.35500 32 0
-0.43700 -0.44000 -0.34800 24 1
-0.48300 -0.48700 -0.36500 30 2
-2.78000 -2.80000 -1.98100 0 3
-2.96100 -2.97900 -1.98800 3 4
-3.19400 -3.21300 -2.01700 1 5
-3.41300 -3.43100 -2.02100 2 6
-3.68900 -3.70600 -2.04200 1 7
-4.01400 -4.03100 -2.07000 2 8
-4.36500 -4.38000 -2.08900 45 9
-4.78500 -4.79900 -2.11400 23 10
-4.80700 -4.81900 -1.95200 3 11
-5.05000 -5.05900 -1.87100 49 12
