ply
format ascii 1.0
element vertex 1703
property float x
property float y
property float z
property uint16 refc
element face 0
property list uint8 int32 vertex_index
end_header
0.13000 -0.44300 -0.14400 5
0.12700 -0.43200 -0.12900 13
0.12700 -0.43300 -0.11800 101
0.12700 -0.43300 -0.10700 100
0.12800 -0.43500 -0.09600 100
0.12800 -0.43800 -0.08600 89
0.13100 -0.44100 -0.07500 17
0.13400 -0.45100 -0.06600 9
0.14100 -0.47500 -0.05700 2
0.17200 -0.58100 -0.05600 0
0.00000 0.00000 0.00000 4
0.00000 0.00000 0.00000 3
0.15600 -0.52700 -0.01200 2
0.00000 0.00000 0.00000 9
0.00000 0.00000 0.00000 3
0.00000 0.00000 0.00000 3
0.00000 0.00000 0.00000 3
0.00000 0.00000 0.00000 10
0.00000 0.00000 0.00000 3
1.43600 -4.88000 0.71400 13
1.45400 -4.94800 0.84700 21
0.00000 0.00000 0.00000 17
0.00000 0.00000 0.00000 17
0.00000 0.00000 0.00000 9
0.01700 -0.06000 -0.03300 26
0.01800 -0.06500 -0.03400 15
0.02000 -0.06900 -0.03400 12
0.02200 -0.07700 -0.03500 9
0.02400 -0.08300 -0.03600 6
0.02600 -0.09100 -0.03700 9
0.12500 -0.43300 -0.16400 3
0.12500 -0.43300 -0.15200 3
0.12700 -0.44100 -0.14300 7
0.12500 -0.43400 -0.12900 13
0.12500 -0.43400 -0.11800 101
0.12500 -0.43400 -0.10700 100
0.12500 -0.43600 -0.09600 100
0.12500 -0.43800 -0.08500 87
0.12900 -0.44200 -0.07500 16
0.13100 -0.45200 -0.06600 9
0.13800 -0.47400 -0.05700 2
0.16900 -0.58300 -0.05600 0
0.00000 0.00000 0.00000 4
0.00000 0.00000 0.00000 3
0.15300 -0.52800 -0.01200 2
0.00000 0.00000 0.00000 9
0.00000 0.00000 0.00000 3
0.00000 0.00000 0.00000 3
0.00000 0.00000 0.00000 3
2.02300 -7.01600 0.68100 38
0.00000 0.00000 0.00000 3
0.00000 0.00000 0.00000 11
1.40200 -4.87800 0.83300 21
1.37700 -4.79300 0.93900 17
0.00000 0.00000 0.00000 17
0.00000 0.00000 0.00000 9
0.01700 -0.06000 -0.03300 21
0.01800 -0.06400 -0.03300 18
0.01900 -0.07000 -0.03400 12
0.02200 -0.07700 -0.03500 9
0.02300 -0.08400 -0.03600 6
0.02500 -0.09100 -0.03700 9
0.12300 -0.43400 -0.16400 3
0.12200 -0.43400 -0.15200 3
0.12500 -0.44300 -0.14300 7
0.12200 -0.43500 -0.12900 13
0.12200 -0.43500 -0.11800 75
0.12200 -0.43500 -0.10700 100
0.12300 -0.43700 -0.09600 100
0.12300 -0.43900 -0.08600 87
0.12600 -0.44400 -0.07500 18
0.12900 -0.45400 -0.06600 9
0.13500 -0.47600 -0.05700 2
0.16600 -0.58400 -0.05600 0
0.00000 0.00000 0.00000 4
0.17100 -0.60300 -0.02900 0
0.15000 -0.53000 -0.01200 2
0.00000 0.00000 0.00000 9
0.00000 0.00000 0.00000 3
0.00000 0.00000 0.00000 3
0.00000 0.00000 0.00000 3
0.00000 0.00000 0.00000 10
1.98200 -7.03500 0.85400 53
1.28300 -4.55700 0.66500 23
1.39900 -4.97500 0.84900 21
1.28500 -4.57600 0.89500 16
0.00000 0.00000 0.00000 17
0.00000 0.00000 0.00000 9
0.01700 -0.06100 -0.03300 21
0.01800 -0.06500 -0.03300 18
0.01900 -0.07000 -0.03400 12
0.02100 -0.07700 -0.03500 9
0.02300 -0.08400 -0.03600 5
0.02500 -0.09200 -0.03700 10
0.12000 -0.43600 -0.16400 3
0.12000 -0.43600 -0.15200 3
0.12200 -0.44400 -0.14300 3
0.12000 -0.43600 -0.12900 13
0.12000 -0.43700 -0.11800 75
0.12000 -0.43600 -0.10700 100
0.12000 -0.43800 -0.09600 100
0.12100 -0.44000 -0.08600 86
0.12400 -0.44400 -0.07500 17
0.12700 -0.45500 -0.06600 9
0.13300 -0.47800 -0.05700 2
0.16400 -0.58900 -0.05700 0
0.00000 0.00000 0.00000 4
0.00000 0.00000 0.00000 3
0.14700 -0.53200 -0.01200 1
0.00000 0.00000 0.00000 9
0.00000 0.00000 0.00000 3
0.00000 0.00000 0.00000 3
0.00000 0.00000 0.00000 3
0.00000 0.00000 0.00000 10
0.00000 0.00000 0.00000 3
0.00000 0.00000 0.00000 11
1.25300 -4.55700 0.77600 37
1.36000 -4.95200 0.96700 18
0.00000 0.00000 0.00000 17
0.00000 0.00000 0.00000 9
0.01600 -0.06100 -0.03300 20
0.01700 -0.06500 -0.03400 18
0.01900 -0.07000 -0.03400 12
0.02100 -0.07700 -0.03500 9
0.02200 -0.08300 -0.03600 5
0.02400 -0.09200 -0.03700 9
0.11800 -0.43700 -0.16500 3
0.11800 -0.43600 -0.15200 3
0.12000 -0.44700 -0.14400 3
0.11800 -0.43700 -0.12900 13
0.11700 -0.43700 -0.11800 75
0.11800 -0.43800 -0.10700 100
0.11800 -0.43900 -0.09600 100
0.11800 -0.44200 -0.08600 86
0.12100 -0.44600 -0.07600 16
0.12400 -0.45600 -0.06600 9
0.13000 -0.47900 -0.05800 2
0.16100 -0.59100 -0.05700 0
0.00000 0.00000 0.00000 4
0.00000 0.00000 0.00000 3
0.14400 -0.53400 -0.01200 1
0.00000 0.00000 0.00000 9
0.00000 0.00000 0.00000 3
0.00000 0.00000 0.00000 3
0.00000 0.00000 0.00000 3
0.00000 0.00000 0.00000 10
0.00000 0.00000 0.00000 3
1.27300 -4.72900 0.68800 12
1.18900 -4.42400 0.75200 34
1.22900 -4.57700 0.89200 15
0.00000 0.00000 0.00000 17
0.00000 0.00000 0.00000 9
0.01600 -0.06100 -0.03300 21
0.01700 -0.06500 -0.03300 18
0.01800 -0.07000 -0.03400 12
0.02000 -0.07800 -0.03600 9
0.02200 -0.08300 -0.03600 5
0.02400 -0.09200 -0.03700 8
0.11500 -0.43800 -0.16400 3
0.11500 -0.43700 -0.15200 3
0.11800 -0.44800 -0.14400 3
0.11500 -0.43800 -0.13000 13
0.11500 -0.43800 -0.11800 72
0.11500 -0.43900 -0.10700 100
0.11500 -0.44000 -0.09600 100
0.11600 -0.44200 -0.08600 85
0.11900 -0.44600 -0.07600 16
0.12100 -0.45600 -0.06600 8
0.12800 -0.48000 -0.05800 2
0.15600 -0.58800 -0.05600 0
0.23700 -0.89400 -0.06400 2
0.13800 -0.52100 -0.02500 0
0.14100 -0.53500 -0.01200 1
0.00000 0.00000 0.00000 9
0.00000 0.00000 0.00000 3
0.00000 0.00000 0.00000 3
0.00000 0.00000 0.00000 3
0.00000 0.00000 0.00000 10
0.00000 0.00000 0.00000 3
1.20200 -4.56900 0.66400 11
0.00000 0.00000 0.00000 9
1.16500 -4.44000 0.86400 14
0.00000 0.00000 0.00000 17
0.00000 0.00000 0.00000 9
0.01500 -0.06000 -0.03300 21
0.01600 -0.06500 -0.03300 18
0.01800 -0.07000 -0.03400 12
0.02000 -0.07800 -0.03500 9
0.02100 -0.08300 -0.03600 5
0.02300 -0.09200 -0.03700 8
0.11300 -0.43800 -0.16400 3
0.11300 -0.43800 -0.15300 3
0.11500 -0.44900 -0.14400 3
0.11300 -0.43900 -0.13000 13
0.11300 -0.43900 -0.11800 72
0.11300 -0.44000 -0.10700 100
0.11300 -0.44100 -0.09600 100
0.11300 -0.44400 -0.08600 84
0.11600 -0.44800 -0.07600 16
0.11900 -0.45700 -0.06600 8
0.12500 -0.48100 -0.05800 2
0.13000 -0.50100 -0.04800 0
0.00000 0.00000 0.00000 4
0.00000 0.00000 0.00000 3
0.13900 -0.53700 -0.01200 1
0.00000 0.00000 0.00000 9
0.00000 0.00000 0.00000 3
0.00000 0.00000 0.00000 3
0.00000 0.00000 0.00000 3
0.00000 0.00000 0.00000 10
0.00000 0.00000 0.00000 3
1.17200 -4.56800 0.66200 22
1.21200 -4.73000 0.80200 20
1.14000 -4.45100 0.86500 29
0.00000 0.00000 0.00000 17
0.00000 0.00000 0.00000 9
0.01500 -0.05900 -0.03200 16
0.01600 -0.06500 -0.03300 18
0.01700 -0.07000 -0.03400 12
0.01900 -0.07700 -0.03500 10
0.02100 -0.08400 -0.03600 5
0.02300 -0.09200 -0.03700 8
0.11000 -0.43800 -0.16400 5
0.11000 -0.43900 -0.15300 8
0.11300 -0.45100 -0.14500 3
0.11000 -0.44100 -0.13000 12
0.11000 -0.44000 -0.11800 69
0.11000 -0.44100 -0.10700 100
0.11100 -0.44300 -0.09700 100
0.11100 -0.44500 -0.08600 84
0.11400 -0.44900 -0.07600 16
0.11600 -0.45900 -0.06600 9
0.12200 -0.48100 -0.05800 3
0.13600 -0.53900 -0.05100 0
0.22400 -0.88500 -0.06300 1
0.00000 0.00000 0.00000 3
0.13600 -0.53900 -0.01200 1
0.00000 0.00000 0.00000 9
1.61700 -6.41300 0.15300 30
0.00000 0.00000 0.00000 3
0.00000 0.00000 0.00000 3
0.00000 0.00000 0.00000 10
0.00000 0.00000 0.00000 3
0.00000 0.00000 0.00000 11
1.06300 -4.24500 0.71800 14
1.00700 -4.02600 0.78200 11
0.00000 0.00000 0.00000 17
0.00000 0.00000 0.00000 9
0.01500 -0.06100 -0.03300 16
0.01600 -0.06500 -0.03400 15
0.01700 -0.07000 -0.03400 12
0.01900 -0.07800 -0.03500 13
0.02000 -0.08400 -0.03600 5
0.02200 -0.09200 -0.03700 8
0.00000 0.00000 0.00000 48
0.00000 0.00000 0.00000 3
0.11000 -0.44900 -0.14400 3
0.10800 -0.44100 -0.13000 10
0.10800 -0.44100 -0.11900 69
0.10800 -0.44200 -0.10700 100
0.10800 -0.44300 -0.09700 100
0.10900 -0.44600 -0.08600 83
0.11200 -0.45000 -0.07600 15
0.11400 -0.46000 -0.06600 8
0.00000 0.00000 0.00000 3
0.12700 -0.51400 -0.04900 3
0.13200 -0.53400 -0.03800 2
0.00000 0.00000 0.00000 3
0.13300 -0.54100 -0.01200 1
0.00000 0.00000 0.00000 9
1.58300 -6.43400 0.15300 30
0.00000 0.00000 0.00000 3
1.56400 -6.37200 0.45800 26
0.00000 0.00000 0.00000 10
0.00000 0.00000 0.00000 3
0.00000 0.00000 0.00000 11
1.04300 -4.27200 0.72200 14
0.98600 -4.04300 0.78400 22
0.00000 0.00000 0.00000 17
0.00000 0.00000 0.00000 9
0.01400 -0.06000 -0.03300 16
0.01500 -0.06500 -0.03300 15
0.01700 -0.07000 -0.03400 12
0.01800 -0.07800 -0.03500 12
0.02000 -0.08500 -0.03600 6
0.02200 -0.09200 -0.03700 8
0.00000 0.00000 0.00000 9
0.10600 -0.44200 -0.15300 2
0.10800 -0.45200 -0.14500 3
0.10500 -0.44200 -0.13000 11
0.10500 -0.44200 -0.11900 66
0.10500 -0.44300 -0.10800 100
0.10600 -0.44500 -0.09700 100
0.10600 -0.44800 -0.08600 82
0.10900 -0.45100 -0.07600 16
0.11100 -0.46200 -0.06600 9
0.00000 0.00000 0.00000 3
0.12100 -0.50100 -0.04800 4
0.12400 -0.51400 -0.03700 2
0.00000 0.00000 0.00000 3
0.13000 -0.54100 -0.01200 1
0.00000 0.00000 0.00000 9
1.56300 -6.51800 0.15500 31
0.00000 0.00000 0.00000 3
1.55300 -6.48900 0.46600 27
0.00000 0.00000 0.00000 10
0.00000 0.00000 0.00000 3
0.00000 0.00000 0.00000 11
1.00000 -4.20300 0.70900 14
1.01800 -4.28600 0.83000 13
0.00000 0.00000 0.00000 17
0.00000 0.00000 0.00000 9
0.01400 -0.05900 -0.03200 16
0.01500 -0.06500 -0.03300 15
0.01600 -0.07100 -0.03400 12
0.01800 -0.07800 -0.03500 12
0.01900 -0.08400 -0.03600 6
0.02100 -0.09300 -0.03700 8
0.00000 0.00000 0.00000 100
0.00000 0.00000 0.00000 85
0.10500 -0.45400 -0.14500 3
0.10300 -0.44300 -0.13000 10
0.10300 -0.44300 -0.11900 66
0.10300 -0.44400 -0.10800 100
0.10300 -0.44600 -0.09700 100
0.10400 -0.44900 -0.08600 81
0.10700 -0.45300 -0.07600 15
0.10900 -0.46200 -0.06600 8
0.00000 0.00000 0.00000 3
0.11800 -0.50300 -0.04800 4
0.00000 0.00000 0.00000 4
0.00000 0.00000 0.00000 3
0.12700 -0.54400 -0.01200 1
1.95400 -8.34700 0.00000 31
1.49000 -6.37600 0.15100 29
1.53800 -6.59100 0.31500 29
0.00000 0.00000 0.00000 3
0.00000 0.00000 0.00000 10
0.00000 0.00000 0.00000 3
0.00000 0.00000 0.00000 11
0.97600 -4.20900 0.70900 14
0.95400 -4.12000 0.79600 11
0.00000 0.00000 0.00000 17
0.00000 0.00000 0.00000 9
0.01300 -0.05800 -0.03200 11
0.01500 -0.06500 -0.03300 18
0.01600 -0.07100 -0.03400 14
0.01700 -0.07800 -0.03500 12
0.01900 -0.08500 -0.03600 6
0.02100 -0.09300 -0.03700 8
0.10000 -0.44200 -0.16500 19
0.10100 -0.44400 -0.15300 18
0.10300 -0.45500 -0.14500 3
0.10000 -0.44500 -0.13000 11
0.10000 -0.44500 -0.11900 64
0.10000 -0.44600 -0.10800 100
0.10100 -0.44700 -0.09700 100
0.10100 -0.45000 -0.08700 80
0.10400 -0.45400 -0.07600 16
0.10600 -0.46400 -0.06600 8
0.11200 -0.49000 -0.05800 2
0.11500 -0.50500 -0.04800 4
0.19200 -0.84000 -0.06000 0
0.00000 0.00000 0.00000 3
0.12400 -0.54700 -0.01300 1
1.91900 -8.42000 0.00000 32
0.00000 0.00000 0.00000 3
1.00800 -4.43500 0.21200 14
0.00000 0.00000 0.00000 3
0.00000 0.00000 0.00000 10
0.00000 0.00000 0.00000 3
0.00000 0.00000 0.00000 11
1.07700 -4.77200 0.80300 20
0.94600 -4.19600 0.81000 12
0.00000 0.00000 0.00000 17
0.00000 0.00000 0.00000 9
0.01200 -0.05600 -0.03000 12
0.01400 -0.06500 -0.03300 18
0.01500 -0.07100 -0.03400 14
0.01700 -0.07800 -0.03500 12
0.01800 -0.08400 -0.03600 6
0.02000 -0.09200 -0.03600 7
0.09800 -0.44400 -0.16500 10
0.09800 -0.44300 -0.15300 22
0.10000 -0.45500 -0.14500 3
0.09800 -0.44600 -0.13100 10
0.09800 -0.44600 -0.11900 61
0.09800 -0.44700 -0.10800 100
0.09800 -0.44800 -0.09700 100
0.09900 -0.45100 -0.08700 76
0.10200 -0.45600 -0.07600 15
0.10400 -0.46500 -0.06700 8
0.10800 -0.48700 -0.05800 3
0.11300 -0.50800 -0.04800 1
0.00000 0.00000 0.00000 4
0.17800 -0.80100 -0.03800 1
0.12200 -0.54900 -0.01300 1
0.00000 0.00000 0.00000 9
1.29400 -5.84500 0.13800 23
0.98300 -4.44300 0.21200 14
0.97000 -4.39100 0.31400 29
0.00000 0.00000 0.00000 10
0.00000 0.00000 0.00000 3
0.00000 0.00000 0.00000 11
0.93700 -4.26300 0.71700 14
0.88500 -4.03300 0.77700 11
0.00000 0.00000 0.00000 17
0.00000 0.00000 0.00000 9
0.01100 -0.05400 -0.02900 13
0.01400 -0.06500 -0.03300 18
0.01500 -0.07100 -0.03400 14
0.01600 -0.07700 -0.03500 12
0.01800 -0.08400 -0.03600 6
0.01900 -0.09200 -0.03600 7
0.09600 -0.44500 -0.16600 6
0.09500 -0.44400 -0.15300 48
0.09800 -0.45500 -0.14500 3
0.09600 -0.44700 -0.13100 10
0.09600 -0.44700 -0.11900 61
0.09500 -0.44700 -0.10800 100
0.09600 -0.44900 -0.09700 27
0.09600 -0.45200 -0.08700 72
0.09900 -0.45700 -0.07600 15
0.10100 -0.46600 -0.06700 8
0.10600 -0.48800 -0.05800 3
0.12500 -0.57600 -0.05500 3
0.00000 0.00000 0.00000 4
0.16400 -0.76100 -0.03600 1
0.11900 -0.55000 -0.01300 1
0.00000 0.00000 0.00000 9
0.00000 0.00000 0.00000 3
0.00000 0.00000 0.00000 3
0.95400 -4.44000 0.31700 15
0.95400 -4.44900 0.42400 14
0.90200 -4.20900 0.50300 19
0.00000 0.00000 0.00000 11
0.91400 -4.28100 0.71900 43
0.86300 -4.04600 0.77900 22
0.00000 0.00000 0.00000 17
0.00000 0.00000 0.00000 9
0.01000 -0.04800 -0.02600 7
0.01300 -0.06500 -0.03300 19
0.01500 -0.07100 -0.03400 14
0.01600 -0.07800 -0.03500 12
0.01700 -0.08500 -0.03600 6
0.01900 -0.09200 -0.03600 7
0.09300 -0.44700 -0.16600 7
0.09300 -0.44600 -0.15400 51
0.09500 -0.45700 -0.14500 3
0.09300 -0.44900 -0.13100 8
0.09300 -0.44900 -0.12000 59
0.09300 -0.44900 -0.10800 100
0.09300 -0.45100 -0.09800 40
0.09400 -0.45300 -0.08700 72
0.09700 -0.45800 -0.07600 15
0.09800 -0.46700 -0.06700 8
0.10300 -0.49000 -0.05800 3
0.12100 -0.57600 -0.05500 3
0.12700 -0.60600 -0.04300 0
0.15800 -0.75300 -0.03500 0
0.11600 -0.55300 -0.01300 1
1.77100 -8.44300 0.00000 31
1.33900 -6.39400 0.15100 29
1.21200 -5.80000 0.27600 20
0.00000 0.00000 0.00000 3
0.93500 -4.48600 0.42700 15
0.87800 -4.22000 0.50400 19
0.87000 -4.18400 0.60000 28
0.98000 -4.72100 0.79200 20
0.00000 0.00000 0.00000 17
0.00000 0.00000 0.00000 17
0.00000 0.00000 0.00000 9
0.00900 -0.04600 -0.02500 8
0.01300 -0.06500 -0.03300 18
0.01400 -0.07100 -0.03400 14
0.01600 -0.07800 -0.03500 12
0.01700 -0.08500 -0.03600 5
0.01800 -0.09300 -0.03700 7
0.09000 -0.44600 -0.16500 11
0.09100 -0.44800 -0.15400 40
0.09300 -0.45900 -0.14600 3
0.09100 -0.45000 -0.13100 8
0.09100 -0.45000 -0.12000 56
0.09100 -0.45000 -0.10800 100
0.09100 -0.45100 -0.09700 83
0.09100 -0.45500 -0.08700 69
0.09400 -0.45900 -0.07700 14
0.09600 -0.46800 -0.06700 8
0.10100 -0.49200 -0.05800 3
0.11800 -0.57900 -0.05500 3
0.00000 0.00000 0.00000 4
0.12400 -0.60800 -0.02800 0
0.11300 -0.55400 -0.01300 1
1.34600 -6.60400 0.00000 61
1.20400 -5.92200 0.14000 23
0.00000 0.00000 0.00000 3
0.85600 -4.21900 0.30100 12
0.94400 -4.65700 0.44300 16
0.93200 -4.60600 0.54900 22
0.85200 -4.22200 0.60500 19
0.96000 -4.75900 0.79700 40
0.85300 -4.23500 0.81300 25
0.00000 0.00000 0.00000 17
0.00000 0.00000 0.00000 9
0.00900 -0.04500 -0.02400 8
0.01300 -0.06500 -0.03300 19
0.01400 -0.07100 -0.03400 14
0.01500 -0.07800 -0.03500 12
0.01600 -0.08500 -0.03600 5
0.01800 -0.09300 -0.03700 7
0.08800 -0.44800 -0.16600 7
0.08800 -0.44800 -0.15400 5
0.09000 -0.46100 -0.14600 3
0.08800 -0.45100 -0.13200 8
0.08800 -0.45100 -0.12000 54
0.08800 -0.45200 -0.10900 100
0.08800 -0.45300 -0.09800 100
0.08900 -0.45600 -0.08700 61
0.09200 -0.46000 -0.07700 15
0.09400 -0.47000 -0.06700 7
0.09800 -0.49300 -0.05800 3
0.11500 -0.57800 -0.05500 3
0.11500 -0.58200 -0.04100 0
0.00000 0.00000 0.00000 3
0.11000 -0.55900 -0.01300 1
0.00000 0.00000 0.00000 9
1.34300 -6.79800 0.16000 33
0.00000 0.00000 0.00000 3
0.84100 -4.27300 0.30400 13
0.82900 -4.21900 0.40100 25
0.84800 -4.32200 0.51500 20
0.86100 -4.39200 0.62900 31
0.84100 -4.30300 0.72000 14
0.90300 -4.62400 0.88700 15
0.00000 0.00000 0.00000 17
0.00000 0.00000 0.00000 9
0.00000 0.00000 0.00000 8
0.01200 -0.06600 -0.03300 18
0.01300 -0.07100 -0.03400 14
0.01500 -0.07800 -0.03500 12
0.01600 -0.08500 -0.03600 5
0.01700 -0.09200 -0.03600 6
0.08600 -0.44900 -0.16600 7
0.00000 0.00000 0.00000 3
0.08800 -0.46400 -0.14700 3
0.08600 -0.45300 -0.13200 7
0.08600 -0.45200 -0.12000 51
0.08600 -0.45300 -0.10900 87
0.08600 -0.45500 -0.09800 100
0.08600 -0.45700 -0.08700 61
0.08900 -0.46100 -0.07700 14
0.09100 -0.47100 -0.06700 7
0.09500 -0.49400 -0.05800 2
0.11200 -0.58000 -0.05500 3
0.11100 -0.57700 -0.04100 3
0.00000 0.00000 0.00000 3
0.10800 -0.56200 -0.01300 1
1.23300 -6.43100 0.00000 19
1.24800 -6.51900 0.15400 30
1.11300 -5.82500 0.27600 20
0.82100 -4.30300 0.30600 13
0.81600 -4.28500 0.40600 40
0.00000 0.00000 0.00000 3
0.82500 -4.34500 0.62100 10
0.80100 -4.22400 0.70600 27
0.80600 -4.26000 0.81600 12
0.00000 0.00000 0.00000 17
0.00000 0.00000 0.00000 9
0.00000 0.00000 0.00000 8
0.01200 -0.06600 -0.03300 18
0.01300 -0.07100 -0.03400 14
0.01400 -0.07900 -0.03500 12
0.01500 -0.08500 -0.03600 5
0.01700 -0.09300 -0.03600 7
0.08300 -0.45000 -0.16600 7
0.08300 -0.45200 -0.15500 1
0.08600 -0.46500 -0.14700 4
0.08300 -0.45400 -0.13200 7
0.08300 -0.45300 -0.12000 48
0.08300 -0.45400 -0.10900 76
0.08300 -0.45600 -0.09800 100
0.08400 -0.45900 -0.08700 50
0.08600 -0.46200 -0.07700 15
0.08800 -0.47300 -0.06700 7
0.09300 -0.49600 -0.05800 3
0.10800 -0.58200 -0.05500 3
0.10700 -0.57700 -0.04100 3
0.10900 -0.58600 -0.02700 0
0.10500 -0.56600 -0.01300 1
0.00000 0.00000 0.00000 9
0.00000 0.00000 0.00000 3
0.00000 0.00000 0.00000 3
0.82400 -4.46200 0.31700 15
0.81000 -4.39400 0.41600 42
0.80200 -4.35200 0.51700 20
0.80400 -4.37300 0.62400 10
0.77500 -4.22300 0.70500 13
0.84900 -4.63400 0.88700 15
0.00000 0.00000 0.00000 17
0.00000 0.00000 0.00000 9
0.00000 0.00000 0.00000 8
0.01200 -0.06700 -0.03400 15
0.01200 -0.07100 -0.03400 14
0.01400 -0.07800 -0.03500 12
0.01500 -0.08500 -0.03600 5
0.01600 -0.09300 -0.03700 7
0.08100 -0.45100 -0.16600 7
0.08000 -0.45000 -0.15400 12
0.08300 -0.46700 -0.14800 6
0.08100 -0.45500 -0.13200 7
0.08100 -0.45400 -0.12000 48
0.08100 -0.45600 -0.10900 81
0.08100 -0.45700 -0.09800 93
0.08100 -0.45900 -0.08700 49
0.08400 -0.46400 -0.07700 14
0.08600 -0.47400 -0.06700 7
0.09000 -0.49700 -0.05900 3
0.10500 -0.58500 -0.05500 3
0.10400 -0.57800 -0.04100 3
0.00000 0.00000 0.00000 3
0.10200 -0.56900 -0.01300 1
0.00000 0.00000 0.00000 9
1.11100 -6.19300 0.14600 26
0.78700 -4.39800 0.20800 13
0.78500 -4.39100 0.31100 14
0.78200 -4.38200 0.41500 42
0.76900 -4.31900 0.51300 19
0.75600 -4.25000 0.60600 9
0.76300 -4.29800 0.71700 29
0.71300 -4.02300 0.76900 10
0.00000 0.00000 0.00000 17
0.00000 0.00000 0.00000 9
0.00000 0.00000 0.00000 8
0.01100 -0.06600 -0.03400 15
0.01200 -0.07100 -0.03400 14
0.01300 -0.07900 -0.03500 12
0.01400 -0.08500 -0.03600 5
0.01600 -0.09300 -0.03700 7
0.00000 0.00000 0.00000 9
0.07800 -0.45400 -0.15500 3
0.08100 -0.46800 -0.14800 6
0.07800 -0.45600 -0.13200 6
0.07800 -0.45600 -0.12100 46
0.07800 -0.45600 -0.10900 72
0.07800 -0.45800 -0.09800 87
0.07900 -0.46100 -0.08800 47
0.08100 -0.46500 -0.07700 14
0.08300 -0.47500 -0.06700 7
0.08800 -0.50200 -0.05900 3
0.10200 -0.58500 -0.05500 3
0.10100 -0.58100 -0.04100 3
0.00000 0.00000 0.00000 3
0.10000 -0.57400 -0.01300 0
1.21900 -7.01600 0.00000 22
0.75800 -4.37500 0.10300 15
0.79400 -4.58600 0.21700 14
0.78700 -4.55700 0.32300 16
0.77300 -4.47900 0.42400 29
0.74500 -4.32300 0.51200 19
0.72400 -4.21000 0.60000 18
0.73600 -4.28600 0.71400 28
0.71100 -4.14800 0.79200 23
0.00000 0.00000 0.00000 17
0.00000 0.00000 0.00000 9
0.00000 0.00000 0.00000 8
0.01100 -0.06600 -0.03400 15
0.01200 -0.07200 -0.03400 14
0.01300 -0.07800 -0.03500 12
0.01400 -0.08500 -0.03600 5
0.01500 -0.09400 -0.03700 7
0.01800 -0.10900 -0.04000 1
0.07600 -0.45500 -0.15600 3
0.07800 -0.47000 -0.14800 6
0.07600 -0.45800 -0.13300 5
0.07600 -0.45700 -0.12100 44
0.07600 -0.45800 -0.11000 65
0.07600 -0.45900 -0.09900 87
0.07600 -0.46200 -0.08800 44
0.07900 -0.46600 -0.07700 14
0.08100 -0.47700 -0.06800 7
0.08500 -0.50400 -0.05900 3
0.09900 -0.59100 -0.05500 3
0.00000 0.00000 0.00000 4
0.10600 -0.63000 -0.02900 3
0.09700 -0.58100 -0.01300 0
0.00000 0.00000 0.00000 9
0.73800 -4.40400 0.10300 32
0.73500 -4.39700 0.20700 27
0.76700 -4.59400 0.32500 16
0.75700 -4.54500 0.42900 30
0.72900 -4.38300 0.51900 20
0.69900 -4.20900 0.59900 18
0.70500 -4.25600 0.70800 41
0.69200 -4.18500 0.79900 24
0.00000 0.00000 0.00000 17
0.00000 0.00000 0.00000 9
0.00000 0.00000 0.00000 8
0.01100 -0.06700 -0.03400 15
0.01100 -0.07100 -0.03400 14
0.01200 -0.07800 -0.03500 12
0.01300 -0.08500 -0.03600 5
0.01500 -0.09300 -0.03600 6
0.01700 -0.11000 -0.04000 1
0.07300 -0.45700 -0.15600 2
0.07500 -0.47100 -0.14900 6
0.07300 -0.45900 -0.13300 3
0.07300 -0.45900 -0.12100 39
0.07300 -0.46000 -0.11000 60
0.07300 -0.46100 -0.09900 75
0.07300 -0.46400 -0.08800 42
0.07600 -0.46800 -0.07800 14
0.07800 -0.47800 -0.06800 8
0.08200 -0.50600 -0.05900 3
0.09600 -0.59200 -0.05600 3
0.10300 -0.63300 -0.04400 2
0.10200 -0.62900 -0.02900 0
0.09600 -0.59300 -0.01300 2
0.73800 -4.56200 0.00000 13
0.73600 -4.55800 0.10700 18
0.73700 -4.57400 0.21600 29
0.70900 -4.41000 0.31200 29
0.71600 -4.46500 0.42100 29
0.70400 -4.39200 0.52000 40
0.67500 -4.21800 0.60000 18
0.68200 -4.27600 0.71100 28
0.66900 -4.19800 0.80100 12
0.00000 0.00000 0.00000 17
0.00000 0.00000 0.00000 9
0.00000 0.00000 0.00000 8
0.01000 -0.06600 -0.03300 16
0.01100 -0.07200 -0.03400 12
0.01200 -0.07800 -0.03500 12
0.01300 -0.08600 -0.03600 5
0.01400 -0.09300 -0.03600 5
0.01700 -0.10900 -0.04000 1
0.07100 -0.45900 -0.15700 2
0.00000 0.00000 0.00000 89
0.07100 -0.46100 -0.13300 3
0.07100 -0.46000 -0.12100 35
0.07100 -0.46000 -0.11000 47
0.07100 -0.46200 -0.09900 62
0.07100 -0.46500 -0.08800 41
0.07400 -0.46900 -0.07800 14
0.07500 -0.47900 -0.06800 8
0.07900 -0.50700 -0.06000 3
0.09300 -0.59400 -0.05600 3
0.09700 -0.62000 -0.04300 1
0.00000 0.00000 0.00000 3
0.09200 -0.58900 -0.01300 2
0.70100 -4.49900 0.00000 19
0.70900 -4.55500 0.10600 18
0.73900 -4.76300 0.22400 15
0.70400 -4.54600 0.32100 32
0.67700 -4.37800 0.41300 41
0.66900 -4.33300 0.51200 59
0.66000 -4.28800 0.60900 29
0.64600 -4.20600 0.69900 39
0.62900 -4.10000 0.78100 33
0.00000 0.00000 0.00000 17
0.00000 0.00000 0.00000 9
0.00000 0.00000 0.00000 8
0.01000 -0.06600 -0.03300 11
0.01000 -0.07200 -0.03400 14
0.01200 -0.08000 -0.03600 13
0.01200 -0.08500 -0.03600 5
0.01400 -0.09300 -0.03600 5
0.08200 -0.54700 -0.20100 2
0.06800 -0.46100 -0.15700 2
0.07100 -0.47800 -0.15000 5
0.06800 -0.46100 -0.13300 2
0.06800 -0.46100 -0.12200 33
0.06800 -0.46200 -0.11000 46
0.06800 -0.46400 -0.09900 56
0.06800 -0.46700 -0.08800 37
0.07100 -0.47000 -0.07800 14
0.07200 -0.48000 -0.06800 8
0.07700 -0.50900 -0.06000 3
0.09000 -0.59800 -0.05600 1
0.00000 0.00000 0.00000 4
0.00000 0.00000 0.00000 3
0.08700 -0.58200 -0.01300 1
0.67300 -4.49200 0.00000 19
0.67400 -4.50800 0.10500 17
0.00000 0.00000 0.00000 3
0.65900 -4.42000 0.31200 43
0.63600 -4.27900 0.40300 13
0.64500 -4.35100 0.51400 40
0.66700 -4.50100 0.63900 21
0.62100 -4.20100 0.69700 39
0.60900 -4.13200 0.78600 11
0.00000 0.00000 0.00000 17
0.00000 0.00000 0.00000 9
0.00000 0.00000 0.00000 8
0.00900 -0.06400 -0.03200 8
0.01000 -0.07200 -0.03400 14
0.01100 -0.07800 -0.03500 12
0.01200 -0.08500 -0.03600 5
0.01300 -0.09300 -0.03700 5
0.07800 -0.54800 -0.20100 1
0.06600 -0.46200 -0.15800 2
0.06800 -0.47700 -0.15000 11
0.06600 -0.46400 -0.13400 1
0.06600 -0.46200 -0.12200 33
0.06600 -0.46400 -0.11100 47
0.06600 -0.46600 -0.10000 50
0.06600 -0.46800 -0.08900 34
0.06900 -0.47200 -0.07800 14
0.07000 -0.48200 -0.06800 8
0.07400 -0.51200 -0.06000 0
0.08900 -0.61500 -0.05700 3
0.00000 0.00000 0.00000 4
0.00000 0.00000 0.00000 3
0.61400 -4.25000 -0.09900 10
0.64700 -4.49000 0.00000 19
0.64700 -4.50700 0.10500 17
0.64000 -4.46300 0.21000 27
0.62700 -4.38300 0.30900 28
0.63000 -4.40900 0.41500 14
0.62600 -4.38900 0.51800 20
0.00000 0.00000 0.00000 11
0.60400 -4.25200 0.70500 27
0.59400 -4.18900 0.79700 23
0.00000 0.00000 0.00000 17
0.00000 0.00000 0.00000 9
0.00000 0.00000 0.00000 8
0.00700 -0.05400 -0.02700 7
0.01000 -0.07200 -0.03400 12
0.01000 -0.07900 -0.03500 12
0.01200 -0.08600 -0.03600 5
0.01200 -0.09300 -0.03600 5
0.07500 -0.54800 -0.20100 2
0.06300 -0.46300 -0.15800 2
0.06400 -0.47100 -0.14800 16
0.06300 -0.46600 -0.13400 0
0.06300 -0.46300 -0.12200 28
0.06300 -0.46500 -0.11100 47
0.06300 -0.46600 -0.10000 47
0.06300 -0.47000 -0.08900 34
0.06600 -0.47400 -0.07800 14
0.06700 -0.48400 -0.06800 9
0.00000 0.00000 0.00000 3
0.00000 0.00000 0.00000 2
0.49000 -3.52600 -0.24900 25
0.00000 0.00000 0.00000 3
0.58800 -4.24700 -0.09900 10
0.62300 -4.51400 0.00000 19
0.62000 -4.49500 0.10500 51
0.61400 -4.46300 0.21000 41
0.60200 -4.38600 0.30900 14
0.60700 -4.43400 0.41700 57
0.58000 -4.24500 0.50100 38
0.64300 -4.71400 0.66800 23
0.57400 -4.22300 0.70000 13
0.57200 -4.21500 0.80100 24
0.00000 0.00000 0.00000 17
0.00000 0.00000 0.00000 9
0.00000 0.00000 0.00000 8
0.00600 -0.04900 -0.02500 8
0.00900 -0.07200 -0.03400 12
0.01000 -0.07900 -0.03500 12
0.01100 -0.08500 -0.03600 5
0.01200 -0.09400 -0.03700 4
0.07200 -0.55000 -0.20100 1
0.06100 -0.46400 -0.15800 2
0.06200 -0.47300 -0.14900 13
0.06100 -0.46700 -0.13500 0
0.06000 -0.46500 -0.12200 26
0.06100 -0.46600 -0.11100 43
0.06100 -0.46800 -0.10000 46
0.06100 -0.47100 -0.08900 31
0.06300 -0.47500 -0.07800 14
0.06500 -0.48600 -0.06800 9
0.00000 0.00000 0.00000 3
0.00000 0.00000 0.00000 2
0.07100 -0.53400 -0.03700 3
0.07400 -0.56000 -0.02600 0
0.56200 -4.24300 -0.09900 10
0.59800 -4.51900 0.00000 26
0.59200 -4.48400 0.10400 34
0.58900 -4.47400 0.21000 13
0.58100 -4.42400 0.31200 14
0.55800 -4.26100 0.40000 25
0.56000 -4.28300 0.50500 19
0.58500 -4.48300 0.63500 10
0.54800 -4.21500 0.69800 26
0.54700 -4.21100 0.80000 12
0.00000 0.00000 0.00000 17
0.00000 0.00000 0.00000 9
0.00000 0.00000 0.00000 8
0.00600 -0.04800 -0.02400 8
0.00900 -0.07200 -0.03400 12
0.01000 -0.07900 -0.03500 12
0.01000 -0.08600 -0.03600 6
0.01100 -0.09300 -0.03600 4
0.06900 -0.55000 -0.20200 1
0.05800 -0.46600 -0.15800 2
0.05900 -0.47400 -0.14900 3
0.05900 -0.47000 -0.13600 0
0.05800 -0.46700 -0.12300 24
0.05800 -0.46800 -0.11100 37
0.05800 -0.47000 -0.10000 42
0.05800 -0.47200 -0.08900 29
0.06100 -0.47700 -0.07900 14
0.06200 -0.48800 -0.06900 9
0.00000 0.00000 0.00000 3
0.00000 0.00000 0.00000 2
0.06800 -0.53600 -0.03700 3
0.07000 -0.55700 -0.02600 2
0.52200 -4.12700 -0.09600 9
0.57900 -4.58300 0.00000 6
0.56500 -4.48400 0.10400 16
0.58000 -4.61200 0.21600 14
0.57300 -4.56800 0.32100 32
0.53500 -4.27300 0.40100 38
0.57000 -4.56500 0.53700 21
0.57100 -4.58400 0.64900 22
0.53800 -4.33000 0.71600 14
0.52300 -4.22000 0.80100 12
0.00000 0.00000 0.00000 17
0.00000 0.00000 0.00000 9
0.00000 0.00000 0.00000 8
0.00500 -0.04700 -0.02300 12
0.00800 -0.07200 -0.03400 12
0.00900 -0.07900 -0.03500 12
0.01000 -0.08600 -0.03600 6
0.01100 -0.09300 -0.03600 6
0.01200 -0.10200 -0.03700 2
0.05600 -0.46800 -0.15900 2
0.05600 -0.47400 -0.14900 2
0.05600 -0.47200 -0.13600 0
0.05500 -0.46800 -0.12300 24
0.05500 -0.47000 -0.11200 31
0.05600 -0.47200 -0.10100 42
0.05600 -0.47400 -0.08900 28
0.05800 -0.47800 -0.07900 14
0.05900 -0.48800 -0.06900 8
0.06400 -0.52400 -0.06100 0
0.00000 0.00000 0.00000 2
0.06600 -0.54400 -0.03800 1
0.06700 -0.55500 -0.02600 1
0.50200 -4.15700 -0.09700 10
0.56900 -4.71900 0.00000 14
0.00000 0.00000 0.00000 3
0.53700 -4.47700 0.21000 13
0.54500 -4.55400 0.32000 16
0.51800 -4.34500 0.40800 26
0.52100 -4.38000 0.51500 20
0.51800 -4.35900 0.61600 19
0.50300 -4.25000 0.70300 27
0.54100 -4.57900 0.86800 14
0.00000 0.00000 0.00000 17
0.00000 0.00000 0.00000 9
0.00000 0.00000 0.00000 8
0.00500 -0.04700 -0.02400 12
0.00800 -0.07300 -0.03400 14
0.00900 -0.08000 -0.03500 12
0.00900 -0.08600 -0.03600 7
0.00000 0.00000 0.00000 89
0.01000 -0.08900 -0.03200 7
0.05300 -0.47100 -0.16000 2
0.05400 -0.47500 -0.14900 1
0.05300 -0.47200 -0.13600 0
0.05300 -0.47000 -0.12300 20
0.05300 -0.47400 -0.11300 10
0.05300 -0.47300 -0.10100 35
0.05300 -0.47600 -0.09000 26
0.05600 -0.47900 -0.07900 13
0.05700 -0.49000 -0.06900 8
0.06000 -0.52200 -0.06100 0
0.06200 -0.54300 -0.05100 0
0.06300 -0.54500 -0.03800 1
0.06400 -0.55900 -0.02600 0
0.72300 -6.29500 -0.14700 24
0.54100 -4.71700 0.00000 14
0.72000 -6.29700 0.14700 27
0.51100 -4.48400 0.21000 13
0.71700 -6.29700 0.44300 24
0.49000 -4.31400 0.40500 26
0.49600 -4.38300 0.51500 40
0.48700 -4.31400 0.61000 9
0.47800 -4.24500 0.70100 40
0.53500 -4.76300 0.90300 16
0.00000 0.00000 0.00000 17
0.00000 0.00000 0.00000 9
0.00000 0.00000 0.00000 8
0.00500 -0.04700 -0.02400 12
0.00800 -0.07300 -0.03400 14
0.00800 -0.08100 -0.03600 12
0.00900 -0.08600 -0.03600 14
0.00900 -0.08700 -0.03400 23
0.00900 -0.08700 -0.03200 16
0.00900 -0.08800 -0.03000 1
0.05100 -0.47300 -0.14800 1
0.05100 -0.47500 -0.13700 0
0.00000 0.00000 0.00000 4
0.05200 -0.48500 -0.11500 2
0.05000 -0.47500 -0.10100 33
0.05000 -0.47800 -0.09000 24
0.05300 -0.48100 -0.07900 13
0.05400 -0.49200 -0.06900 8
0.05700 -0.52000 -0.06100 0
0.00000 0.00000 0.00000 2
0.06000 -0.54700 -0.03800 0
0.00000 0.00000 0.00000 3
0.43300 -3.97200 -0.09200 8
0.67300 -6.19200 0.00000 35
0.50200 -4.62800 0.10800 18
0.47700 -4.40800 0.20600 26
0.49100 -4.54900 0.31900 15
0.46700 -4.34800 0.40800 26
0.46600 -4.34000 0.51000 39
0.49100 -4.58700 0.64800 11
0.44100 -4.13700 0.68300 24
0.51200 -4.81300 0.91100 16
0.00000 0.00000 0.00000 17
0.00000 0.00000 0.00000 9
0.00400 -0.04300 -0.02300 8
0.00500 -0.04800 -0.02400 12
0.00700 -0.07300 -0.03500 16
0.00800 -0.08100 -0.03600 13
0.00800 -0.08500 -0.03500 25
0.00800 -0.08500 -0.03300 24
0.00800 -0.08600 -0.03100 16
0.00900 -0.08800 -0.03000 3
0.04800 -0.47300 -0.14800 2
0.04800 -0.47400 -0.13600 0
0.04800 -0.47500 -0.12500 0
0.05000 -0.49400 -0.11700 2
0.04800 -0.47700 -0.10200 8
0.04800 -0.48000 -0.09000 20
0.05000 -0.48200 -0.07900 11
0.05100 -0.49300 -0.06900 8
0.05400 -0.51800 -0.06000 0
0.05500 -0.53200 -0.04900 2
0.05600 -0.54300 -0.03800 3
0.55100 -5.32500 -0.24900 19
0.40900 -3.96700 -0.09200 16
0.62700 -6.08900 0.00000 34
0.44900 -4.37700 0.10200 15
0.45100 -4.41100 0.20600 13
0.43700 -4.28800 0.30100 25
0.45400 -4.46300 0.41800 43
0.61600 -6.07900 0.71400 35
0.41600 -4.11000 0.58000 17
0.41400 -4.11100 0.67800 23
0.41000 -4.08600 0.77300 22
0.00000 0.00000 0.00000 17
0.00000 0.00000 0.00000 9
0.00000 0.00000 0.00000 8
0.00400 -0.04800 -0.02400 12
0.00700 -0.07400 -0.03500 16
0.00700 -0.08000 -0.03600 15
0.00800 -0.08400 -0.03500 32
0.00800 -0.08400 -0.03300 27
0.00800 -0.08400 -0.03000 19
0.00800 -0.08600 -0.02900 4
0.04500 -0.47700 -0.14900 1
0.04500 -0.47700 -0.13700 0
0.04500 -0.47800 -0.12500 0
0.04600 -0.48700 -0.11500 6
0.04600 -0.48400 -0.10300 2
0.04500 -0.48200 -0.09100 14
0.04800 -0.48500 -0.08000 10
0.04900 -0.49600 -0.07000 8
0.05100 -0.52200 -0.06100 2
0.05200 -0.53200 -0.04900 0
0.43300 -4.42500 -0.31100 23
0.51200 -5.24800 -0.24600 18
0.38500 -3.96300 -0.09200 8
0.58200 -5.99400 0.00000 16
0.44100 -4.56100 0.10600 17
0.42700 -4.43400 0.20700 27
0.57600 -5.98600 0.42000 21
0.42600 -4.44600 0.41600 28
0.43300 -4.53600 0.53200 21
0.39100 -4.10300 0.57900 17
0.40700 -4.28300 0.70600 13
0.40600 -4.28700 0.81100 12
0.00000 0.00000 0.00000 17
0.00000 0.00000 0.00000 9
0.00000 0.00000 0.00000 8
0.00400 -0.04700 -0.02400 8
0.00600 -0.07400 -0.03500 18
0.00700 -0.08000 -0.03600 22
0.00700 -0.08300 -0.03500 36
0.00700 -0.08200 -0.03200 29
0.00700 -0.08200 -0.03000 21
0.00700 -0.08600 -0.02900 4
0.04300 -0.47900 -0.15000 1
0.04300 -0.47800 -0.13700 0
0.04300 -0.47900 -0.12600 0
0.00000 0.00000 0.00000 42
0.04300 -0.48800 -0.10400 3
0.04300 -0.48400 -0.09100 9
0.04500 -0.48700 -0.08000 7
0.04600 -0.49800 -0.07000 7
0.04800 -0.52200 -0.06100 0
0.04900 -0.53100 -0.04900 3
0.34300 -3.72500 -0.26100 37
0.51200 -5.57300 -0.26100 40
0.35800 -3.91300 -0.09100 8
0.54100 -5.92200 0.00000 32
0.41900 -4.60500 0.10700 18
0.42000 -4.64300 0.21700 14
0.53900 -5.95800 0.41800 41
0.53800 -5.96900 0.55900 46
0.36800 -4.10500 0.48100 17
0.38300 -4.27400 0.60300 19
0.40100 -4.49600 0.74100 16
0.37600 -4.23200 0.80000 24
0.00000 0.00000 0.00000 17
0.00000 0.00000 0.00000 9
0.00000 0.00000 0.00000 8
0.00400 -0.04700 -0.02300 8
0.00600 -0.07300 -0.03400 18
0.00600 -0.07900 -0.03500 25
0.00700 -0.08100 -0.03400 34
0.00600 -0.08000 -0.03100 29
0.00600 -0.08100 -0.02900 26
0.00700 -0.08400 -0.02800 5
0.04000 -0.48300 -0.15100 0
0.04000 -0.48200 -0.13800 0
0.04000 -0.48200 -0.12600 0
0.04200 -0.50200 -0.11900 11
0.04100 -0.49200 -0.10500 1
0.04000 -0.48700 -0.09200 7
0.04200 -0.49000 -0.08000 7
0.04300 -0.50100 -0.07000 6
0.04500 -0.52100 -0.06100 4
0.00000 0.00000 0.00000 2
0.32200 -3.73600 -0.26200 30
0.48100 -5.59000 -0.26100 40
0.33700 -3.94100 -0.09100 8
0.40000 -4.67600 0.00000 21
0.37300 -4.38200 0.10200 30
0.50700 -5.97900 0.27900 42
0.37500 -4.43200 0.31100 43
0.38800 -4.61200 0.43100 15
0.50500 -6.02500 0.70600 34
0.34900 -4.16800 0.58700 18
0.37500 -4.50000 0.74100 32
0.39400 -4.74300 0.89600 16
0.00000 0.00000 0.00000 17
0.00000 0.00000 0.00000 9
0.00000 0.00000 0.00000 8
0.00300 -0.04700 -0.02300 8
0.00600 -0.07400 -0.03500 18
0.00600 -0.08000 -0.03500 39
0.00600 -0.08000 -0.03300 31
0.00600 -0.07900 -0.03100 33
0.00600 -0.07900 -0.02900 37
0.00600 -0.08300 -0.02800 6
0.03800 -0.49100 -0.15300 1
0.03800 -0.48600 -0.14000 0
0.03800 -0.48500 -0.12700 0
0.03800 -0.49000 -0.11600 5
0.00000 0.00000 0.00000 77
0.03700 -0.49000 -0.09200 7
0.04000 -0.49200 -0.08100 6
0.04100 -0.50400 -0.07100 5
0.04200 -0.52500 -0.06100 1
0.00000 0.00000 0.00000 2
0.29300 -3.64800 -0.25500 7
0.29300 -3.65600 -0.17100 28
0.31400 -3.93300 -0.09100 8
0.37000 -4.66000 0.00000 21
0.47400 -5.98000 0.13900 23
0.35800 -4.52800 0.21100 28
0.34700 -4.41600 0.30900 28
0.36000 -4.60200 0.43000 15
0.47200 -6.03900 0.70800 34
0.46900 -6.02600 0.84900 70
0.35900 -4.64500 0.76500 18
0.36300 -4.70100 0.88800 15
0.00000 0.00000 0.00000 17
0.00000 0.00000 0.00000 9
0.00000 0.00000 0.00000 8
0.00300 -0.04700 -0.02300 8
0.00500 -0.07400 -0.03500 18
0.00500 -0.07800 -0.03500 43
0.00500 -0.07800 -0.03200 33
0.00500 -0.07700 -0.03000 35
0.00500 -0.07700 -0.02800 62
0.00000 0.00000 0.00000 54
0.00600 -0.08800 -0.02700 2
0.03500 -0.48800 -0.14000 0
0.03500 -0.48600 -0.12700 0
0.03500 -0.49000 -0.11600 12
0.03500 -0.49200 -0.10500 31
0.03500 -0.49400 -0.09300 6
0.03700 -0.49500 -0.08100 6
0.03800 -0.50900 -0.07100 5
0.04000 -0.53700 -0.06200 0
0.00000 0.00000 0.00000 35
0.28900 -3.87400 -0.27100 24
0.00000 0.00000 0.00000 3
0.00000 0.00000 0.00000 1
0.00000 0.00000 0.00000 9
0.33000 -4.50100 0.10400 33
0.44000 -6.01000 0.28000 43
0.43800 -6.01700 0.42100 42
0.43700 -6.01600 0.56200 71
0.43700 -6.04900 0.70900 34
0.43500 -6.04500 0.85100 47
0.00000 0.00000 0.00000 9
0.43500 -6.08300 1.14900 47
0.00000 0.00000 0.00000 17
0.00000 0.00000 0.00000 9
0.00000 0.00000 0.00000 8
0.00300 -0.04800 -0.02400 8
0.00500 -0.07400 -0.03500 22
0.00500 -0.07700 -0.03400 61
0.00500 -0.07700 -0.03200 33
0.00500 -0.07600 -0.02900 50
0.00500 -0.07800 -0.02800 68
0.00500 -0.08100 -0.02700 37
0.00500 -0.08800 -0.02700 4
0.03200 -0.49200 -0.14100 0
0.03200 -0.49200 -0.12900 0
0.03300 -0.50100 -0.11900 18
0.00000 0.00000 0.00000 7
0.03200 -0.49800 -0.09400 3
0.03500 -0.50000 -0.08200 6
0.13000 -1.86600 -0.26300 2
0.03700 -0.53600 -0.06200 0
0.03700 -0.54600 -0.05100 1
0.26200 -3.81100 -0.26700 23
0.26100 -3.81500 -0.17800 7
0.36300 -5.31500 -0.12300 18
0.30600 -4.50700 0.00000 13
0.30300 -4.48000 0.10400 16
0.40500 -6.02200 0.28100 43
0.40500 -6.03500 0.42200 42
0.40200 -6.03200 0.56300 72
0.40300 -6.08000 0.71200 35
0.40000 -6.06800 0.85400 47
0.00000 0.00000 0.00000 9
0.39900 -6.10000 1.15100 48
0.00000 0.00000 0.00000 17
0.00000 0.00000 0.00000 9
0.00200 -0.04400 -0.02300 8
0.00300 -0.04900 -0.02500 8
0.00400 -0.07300 -0.03400 26
0.00400 -0.07600 -0.03400 66
0.00400 -0.07600 -0.03100 34
0.00400 -0.07400 -0.02900 52
0.00400 -0.07700 -0.02800 68
0.00500 -0.08100 -0.02700 41
0.00500 -0.08800 -0.02700 5
0.00000 0.00000 0.00000 2
0.00000 0.00000 0.00000 2
0.00000 0.00000 0.00000 2
0.06400 -1.06600 -0.22700 0
0.07300 -1.22700 -0.23100 1
0.00000 0.00000 0.00000 8
0.11900 -1.86600 -0.26200 3
0.03400 -0.54400 -0.06300 0
0.03400 -0.55200 -0.05100 0
0.26000 -4.14000 -0.29000 9
0.21800 -3.48800 -0.16300 6
0.21700 -3.49200 -0.08100 6
0.27800 -4.49100 0.00000 13
0.37100 -6.02600 0.14000 47
0.37100 -6.03600 0.28100 43
0.37000 -6.05100 0.42300 43
0.36800 -6.04900 0.56500 72
0.36800 -6.07700 0.71100 69
0.36700 -6.08800 0.85700 48
0.36600 -6.10100 1.00400 47
0.36500 -6.11700 1.15400 48
0.00000 0.00000 0.00000 17
0.00000 0.00000 0.00000 9
0.00300 -0.05200 -0.02800 14
0.00200 -0.04900 -0.02500 12
0.00400 -0.07300 -0.03400 40
0.00400 -0.07600 -0.03400 61
0.00400 -0.07400 -0.03100 35
0.00400 -0.07400 -0.02900 55
0.00400 -0.07700 -0.02800 68
0.00400 -0.08100 -0.02700 48
0.00000 0.00000 0.00000 19
0.00000 0.00000 0.00000 100
0.04400 -0.81100 -0.21200 3
0.05000 -0.92100 -0.21800 3
0.05700 -1.06100 -0.22600 2
0.06600 -1.23000 -0.23200 1
0.08700 -1.50600 -0.24700 1
0.10800 -1.86700 -0.26200 3
0.00000 0.00000 0.00000 3
0.17500 -3.04700 -0.28400 4
0.00000 0.00000 0.00000 4
0.19800 -3.49100 -0.16300 24
0.19800 -3.49900 -0.08100 24
0.34000 -6.03100 0.00000 66
0.33800 -6.04300 0.14000 47
0.33700 -6.05200 0.28200 43
0.33700 -6.06600 0.42400 43
0.33400 -6.06500 0.56600 73
0.33400 -6.09400 0.71300 70
0.33300 -6.10500 0.85900 72
0.33200 -6.11700 1.00600 47
0.33100 -6.13300 1.15700 48
0.00000 0.00000 0.00000 17
0.00000 0.00000 0.00000 9
0.00200 -0.05500 -0.02900 13
0.00200 -0.04900 -0.02500 12
0.00300 -0.07200 -0.03400 46
0.00300 -0.07400 -0.03300 54
0.00300 -0.07200 -0.03000 45
0.00300 -0.07400 -0.02900 59
0.00300 -0.07700 -0.02800 68
0.00400 -0.08100 -0.02700 48
0.00400 -0.08500 -0.02600 19
0.00000 0.00000 0.00000 79
0.04000 -0.81300 -0.21300 3
0.04500 -0.92100 -0.21800 2
0.05100 -1.06300 -0.22600 2
0.05900 -1.23100 -0.23200 1
0.07900 -1.50700 -0.24800 1
0.09700 -1.86800 -0.26200 2
0.11200 -2.16700 -0.25300 3
0.00000 0.00000 0.00000 2
0.00000 0.00000 0.00000 4
0.17900 -3.50100 -0.16300 30
0.17800 -3.50700 -0.08100 24
0.30500 -6.04600 0.00000 67
0.30400 -6.05900 0.14000 48
0.30300 -6.06700 0.28300 44
0.30100 -6.08200 0.42500 43
0.29900 -6.08200 0.56800 73
0.29900 -6.11000 0.71500 70
0.29800 -6.12200 0.86100 72
0.29600 -6.13300 1.00800 47
0.29600 -6.14800 1.15900 49
0.00000 0.00000 0.00000 17
0.00000 0.00000 0.00000 9
0.00200 -0.05400 -0.02800 13
0.00200 -0.05000 -0.02500 12
0.00300 -0.07200 -0.03400 55
0.00300 -0.07300 -0.03200 48
0.00300 -0.07200 -0.03000 52
0.00300 -0.07400 -0.02900 78
0.00300 -0.07700 -0.02800 72
0.00300 -0.08000 -0.02700 48
0.00300 -0.08400 -0.02600 23
0.03100 -0.73100 -0.20900 39
0.03500 -0.81400 -0.21300 3
0.03900 -0.92200 -0.21800 3
0.04500 -1.06200 -0.22600 2
0.05200 -1.23300 -0.23200 1
0.07000 -1.51200 -0.24800 1
0.00000 0.00000 0.00000 5
0.00000 0.00000 0.00000 93
0.14000 -3.07600 -0.28700 4
0.00000 0.00000 0.00000 4
0.15800 -3.50900 -0.16300 25
0.15800 -3.51600 -0.08100 24
0.27100 -6.06200 0.00000 67
0.26900 -6.07500 0.14100 48
0.26800 -6.08100 0.28300 44
0.26700 -6.09900 0.42600 43
0.26600 -6.09800 0.56900 74
0.26500 -6.12600 0.71700 71
0.26300 -6.13800 0.86300 73
0.26300 -6.15100 1.01100 48
0.26100 -6.16700 1.16200 49
0.00000 0.00000 0.00000 17
0.00000 0.00000 0.00000 9
0.00200 -0.05400 -0.02900 13
0.00200 -0.05100 -0.02500 11
0.00200 -0.07000 -0.03300 57
0.00200 -0.07100 -0.03100 76
0.00200 -0.07100 -0.02900 54
0.00200 -0.07500 -0.02900 74
0.00300 -0.07700 -0.02800 68
0.00300 -0.08100 -0.02700 48
0.00300 -0.08400 -0.02600 26
0.02700 -0.73000 -0.20900 46
0.03000 -0.81400 -0.21300 3
0.03400 -0.92300 -0.21900 3
0.03900 -1.06400 -0.22600 2
0.04500 -1.23500 -0.23200 1
0.06200 -1.51200 -0.24800 1
0.07600 -1.86800 -0.26200 1
0.08700 -2.15500 -0.25100 4
0.12400 -3.09300 -0.28800 4
0.13000 -3.28700 -0.23000 19
0.13000 -3.29200 -0.15300 20
0.12900 -3.29600 -0.07600 20
0.23600 -6.07900 0.00000 67
0.23600 -6.09100 0.14100 48
0.23400 -6.09500 0.28400 44
0.23200 -6.11500 0.42700 44
0.23000 -6.11500 0.57000 74
0.23000 -6.14200 0.71800 71
0.22800 -6.15400 0.86500 73
0.22700 -6.16700 1.01300 48
0.22600 -6.18300 1.16500 49
0.00000 0.00000 0.00000 17
0.00000 0.00000 0.00000 9
0.00100 -0.05600 -0.02900 13
0.00100 -0.05200 -0.02600 7
0.00200 -0.07000 -0.03300 69
0.00200 -0.07000 -0.03100 99
0.00200 -0.07100 -0.02900 54
0.00200 -0.07400 -0.02900 82
0.00200 -0.07700 -0.02800 68
0.00200 -0.08200 -0.02700 50
0.00200 -0.08400 -0.02600 23
0.02300 -0.73100 -0.20900 36
0.02500 -0.81500 -0.21300 3
0.02900 -0.92400 -0.21900 2
0.03300 -1.06600 -0.22600 1
0.03800 -1.23700 -0.23300 1
0.05300 -1.51500 -0.24900 1
0.06500 -1.86700 -0.26200 3
0.07400 -2.16300 -0.25200 1
0.10600 -3.11900 -0.29100 5
0.00000 0.00000 0.00000 4
0.11800 -3.53000 -0.16400 31
0.11700 -3.53600 -0.08200 25
0.20200 -6.09600 0.00000 68
0.20000 -6.10800 0.14100 49
0.19800 -6.10900 0.28400 45
0.19800 -6.13200 0.42800 44
0.19500 -6.13100 0.57200 75
0.19400 -6.15900 0.72000 72
0.18300 -5.83800 0.82000 21
0.18100 -5.84200 0.96000 21
0.17900 -5.83600 1.10000 21
0.00000 0.00000 0.00000 17
0.00000 0.00000 0.00000 9
0.00100 -0.05600 -0.02900 13
0.00100 -0.05200 -0.02600 7
0.00100 -0.06900 -0.03200 72
0.00100 -0.07000 -0.03100 100
0.00100 -0.07100 -0.02900 52
0.00200 -0.07400 -0.02900 82
0.00200 -0.07700 -0.02800 72
0.00200 -0.08100 -0.02700 48
0.00200 -0.08400 -0.02600 27
0.01900 -0.73300 -0.21000 48
0.02100 -0.81500 -0.21300 3
0.02300 -0.92500 -0.21900 2
0.02700 -1.06600 -0.22600 2
0.03100 -1.23900 -0.23300 1
0.04400 -1.51600 -0.24900 1
0.05400 -1.85800 -0.26100 6
0.06200 -2.16000 -0.25200 1
0.08900 -3.14300 -0.29300 5
0.10000 -3.53600 -0.24700 6
0.09800 -3.53800 -0.16500 6
0.09800 -3.54700 -0.08200 6
0.16700 -6.11500 0.00000 34
0.16500 -6.12500 0.14200 24
0.15500 -5.78900 0.27000 20
0.15300 -5.79000 0.40400 20
0.15200 -5.78400 0.53900 22
0.15000 -5.78100 0.67600 31
0.14700 -5.75700 0.80900 40
0.14700 -5.77200 0.94800 64
0.14500 -5.77600 1.08800 21
0.00000 0.00000 0.00000 17
0.00000 0.00000 0.00000 9
0.00100 -0.05700 -0.03000 12
0.00100 -0.05200 -0.02600 7
0.00100 -0.06900 -0.03200 74
0.00100 -0.06900 -0.03100 100
0.00100 -0.07100 -0.02900 52
0.00100 -0.07400 -0.02900 82
0.00100 -0.07700 -0.02800 68
0.00100 -0.08100 -0.02700 50
0.00100 -0.08400 -0.02600 26
0.01500 -0.73400 -0.21000 7
0.01600 -0.81600 -0.21300 3
0.01800 -0.92600 -0.21900 2
0.02100 -1.06700 -0.22700 1
0.02400 -1.23800 -0.23300 1
0.03600 -1.51900 -0.24900 3
0.04200 -1.81400 -0.25500 7
0.05000 -2.15700 -0.25200 1
0.07200 -3.15700 -0.29400 5
0.08400 -3.70800 -0.25900 7
0.08100 -3.64300 -0.16900 6
0.07900 -3.57500 -0.08300 12
0.12400 -5.72100 0.00000 28
0.12200 -5.72000 0.13200 46
0.12100 -5.71900 0.26600 40
0.11900 -5.72000 0.40000 20
0.11900 -5.75400 0.53600 66
0.11700 -5.75300 0.67200 62
0.11600 -5.78000 0.81200 20
0.11400 -5.75900 0.94600 64
0.11300 -5.78100 1.08900 21
0.00000 0.00000 0.00000 17
0.00000 0.00000 0.00000 9
0.00100 -0.05800 -0.03100 12
0.00000 -0.05100 -0.02600 7
0.00100 -0.06900 -0.03200 76
0.00100 -0.07000 -0.03100 100
0.00100 -0.07100 -0.02900 54
0.00100 -0.07500 -0.02900 74
0.00100 -0.07700 -0.02800 68
0.00100 -0.08100 -0.02700 48
0.00100 -0.08400 -0.02600 26
0.01000 -0.73500 -0.21000 3
0.01100 -0.81700 -0.21400 3
0.01300 -0.92600 -0.21900 2
0.01400 -1.06800 -0.22700 2
0.01600 -1.24000 -0.23300 1
0.02600 -1.51700 -0.24900 7
0.00000 0.00000 0.00000 5
0.03600 -2.15400 -0.25100 3
0.05400 -3.26000 -0.30400 18
0.06000 -3.65500 -0.25500 14
0.05800 -3.60200 -0.16800 6
0.05700 -3.54900 -0.08200 18
0.09200 -5.88000 0.00000 30
0.08700 -5.70800 0.13200 69
0.09000 -5.93200 0.27600 20
0.08300 -5.64600 0.39400 20
0.08700 -5.95100 0.55500 23
0.06200 -4.35200 0.50800 19
0.06000 -4.34300 0.61000 19
0.05900 -4.34900 0.71400 28
0.05800 -4.34300 0.81800 12
0.00000 0.00000 0.00000 17
0.00000 0.00000 0.00000 9
0.00000 -0.06300 -0.03300 10
0.00000 -0.05200 -0.02600 7
0.00000 -0.06900 -0.03200 76
0.00000 -0.07000 -0.03100 100
0.00000 -0.07100 -0.02900 52
0.00000 -0.07400 -0.02900 85
0.00000 -0.07700 -0.02800 66
0.00000 -0.08200 -0.02700 50
0.00000 -0.08400 -0.02600 26
0.00600 -0.73600 -0.21100 3
0.00700 -0.81700 -0.21300 3
0.00700 -0.92700 -0.21900 2
0.00800 -1.06800 -0.22700 2
0.00900 -1.24200 -0.23400 1
0.01800 -1.52500 -0.25000 1
0.02000 -1.73700 -0.24400 1
0.02400 -2.14700 -0.25000 1
0.03700 -3.31500 -0.30900 12
0.03900 -3.60400 -0.25200 6
0.03800 -3.58800 -0.16700 19
0.03600 -3.55200 -0.08200 18
0.04200 -4.30400 0.00000 17
0.04200 -4.30400 0.09900 28
0.04000 -4.30600 0.20000 25
0.03900 -4.30200 0.30000 25
0.03700 -4.29700 0.40000 38
0.03600 -4.30000 0.50200 38
0.03500 -4.29200 0.60300 19
0.03300 -4.29500 0.70500 27
0.03200 -4.28600 0.80700 12
0.00000 0.00000 0.00000 17
0.00000 0.00000 0.00000 9
0.00000 -0.06400 -0.03400 10
0.00000 -0.05200 -0.02600 7
0.00000 -0.06900 -0.03200 96
0.00000 -0.07100 -0.03100 100
0.00000 -0.07100 -0.02900 54
0.00000 -0.07400 -0.02900 82
0.00000 -0.07700 -0.02800 68
0.00000 -0.08100 -0.02700 48
0.00000 -0.08400 -0.02600 26
0.00200 -0.73700 -0.21100 5
0.00200 -0.81800 -0.21400 3
0.00200 -0.92700 -0.21900 2
0.00200 -1.06900 -0.22700 1
0.00200 -1.24200 -0.23400 1
0.00900 -1.52400 -0.25000 2
0.00000 0.00000 0.00000 100
0.01200 -2.14900 -0.25100 1
0.01400 -2.81700 -0.26200 7
0.01400 -2.82300 -0.19700 11
0.01300 -2.82800 -0.13100 12
0.01200 -2.83400 -0.06500 13
0.01700 -4.24900 0.00000 16
0.01600 -4.25000 0.09800 26
0.01400 -4.24500 0.19700 24
0.01400 -4.24800 0.29700 24
0.01200 -4.24300 0.39500 37
0.01100 -4.24700 0.49600 37
0.01000 -4.23600 0.59500 27
0.00800 -4.24100 0.69600 26
0.00700 -4.23400 0.79700 12
0.00000 0.00000 0.00000 17
0.00000 0.00000 0.00000 9
0.00000 -0.06300 -0.03300 15
0.00000 -0.05000 -0.02500 12
0.00000 -0.06900 -0.03300 100
0.00000 -0.07000 -0.03100 100
0.00000 -0.07100 -0.02900 54
0.00000 -0.07400 -0.02900 82
0.00000 -0.07700 -0.02800 72
0.00000 -0.08200 -0.02700 50
0.00000 -0.08400 -0.02600 24
-0.00100 -0.73600 -0.21100 5
-0.00200 -0.81700 -0.21400 3
-0.00200 -0.92800 -0.22000 2
-0.00300 -1.06900 -0.22700 2
-0.00400 -1.24500 -0.23400 1
0.00000 -1.51700 -0.24900 3
0.00000 -1.67800 -0.23500 3
0.00000 -2.14600 -0.25000 1
-0.00100 -3.42000 -0.31900 14
-0.00200 -3.50600 -0.24500 24
-0.00300 -3.57100 -0.16600 13
-0.00400 -3.56300 -0.08200 25
-0.00600 -4.19700 0.00000 16
-0.00800 -4.20200 0.09700 25
-0.00900 -4.19300 0.19500 23
-0.01000 -4.19600 0.29300 34
-0.01100 -4.19000 0.39000 35
-0.01300 -4.19400 0.49000 36
-0.01300 -4.18600 0.58800 27
-0.01500 -4.19000 0.68800 37
-0.01600 -4.18300 0.78800 11
0.00000 0.00000 0.00000 17
0.00000 0.00000 0.00000 9
0.00000 -0.06300 -0.03300 15
0.00000 -0.05000 -0.02500 12
0.00000 -0.07000 -0.03300 100
0.00000 -0.07100 -0.03100 100
0.00000 -0.07100 -0.02900 52
0.00000 -0.07500 -0.02900 78
0.00000 -0.07700 -0.02800 68
0.00000 -0.08100 -0.02700 48
0.00000 -0.08500 -0.02600 23
-0.00600 -0.73600 -0.21100 4
-0.00700 -0.81700 -0.21400 3
-0.00800 -0.92800 -0.22000 2
-0.00900 -1.06900 -0.22700 2
-0.01100 -1.24600 -0.23400 1
-0.00800 -1.51600 -0.24900 2
-0.00900 -1.67600 -0.23500 11
-0.01200 -2.14400 -0.25000 1
-0.01000 -1.72400 -0.16000 2
-0.02300 -3.57100 -0.24900 19
-0.02400 -3.58000 -0.16600 19
-0.02500 -3.58600 -0.08300 19
-0.03000 -4.14800 0.00000 15
-0.01900 -2.57000 0.05900 6
-0.03300 -4.14200 0.19300 23
-0.03400 -4.14500 0.28900 32
-0.03500 -4.14000 0.38600 34
-0.03600 -4.14400 0.48400 35
-0.03700 -4.13400 0.58100 26
-0.03900 -4.14000 0.68000 35
-0.04000 -4.13600 0.77900 11
0.00000 0.00000 0.00000 17
0.00000 0.00000 0.00000 9
0.00000 -0.06500 -0.03500 14
0.00000 -0.05200 -0.02600 11
0.00000 -0.06900 -0.03200 100
0.00000 -0.06900 -0.03100 100
0.00000 -0.07100 -0.02900 52
0.00000 -0.07400 -0.02900 82
-0.00100 -0.07700 -0.02800 72
-0.00100 -0.08100 -0.02700 48
-0.00100 -0.08500 -0.02600 23
-0.01000 -0.73700 -0.21100 3
-0.01100 -0.81800 -0.21400 3
-0.01300 -0.92800 -0.22000 2
-0.01600 -1.07000 -0.22700 2
-0.01900 -1.24800 -0.23500 2
-0.01600 -1.51300 -0.24800 2
0.00000 0.00000 0.00000 76
-0.02500 -2.14200 -0.25000 1
-0.02000 -1.72500 -0.16100 5
-0.02100 -1.72200 -0.12000 4
-0.03400 -2.76600 -0.12900 9
-0.03500 -2.74600 -0.06300 6
-0.02500 -1.94000 0.00000 2
-0.03400 -2.56200 0.05900 6
-0.03700 -2.73900 0.12700 6
-0.05700 -4.09700 0.28600 20
-0.05800 -4.09300 0.38100 44
-0.06000 -4.10200 0.47900 52
-0.06000 -4.11000 0.57700 34
-0.06200 -4.11700 0.67600 46
-0.06400 -4.13200 0.77800 22
0.00000 0.00000 0.00000 17
0.00000 0.00000 0.00000 9
-0.00100 -0.06800 -0.03600 13
0.00000 -0.05100 -0.02500 11
-0.00100 -0.06900 -0.03200 92
-0.00100 -0.07000 -0.03100 100
-0.00100 -0.07100 -0.02900 54
-0.00100 -0.07400 -0.02900 82
-0.00100 -0.07700 -0.02800 72
-0.00100 -0.08000 -0.02700 48
-0.00100 -0.08400 -0.02600 24
-0.01400 -0.73600 -0.21100 5
-0.01600 -0.81800 -0.21400 3
-0.01900 -0.92900 -0.22000 2
-0.02200 -1.07100 -0.22700 2
-0.02600 -1.25000 -0.23500 2
-0.02500 -1.51100 -0.24800 3
